ply
format ascii 1.0
comment PCL generated
element vertex 1256
property float x
property float y
property float z
property uchar red
property uchar green
property uchar blue
element camera 0
property float view_px
property float view_py
property float view_pz
property float x_axisx
property float x_axisy
property float x_axisz
property float y_axisx
property float y_axisy
property float y_axisz
property float z_axisx
property float z_axisy
property float z_axisz
property float focal
property float scalex
property float scaley
property float centerx
property float centery
property int viewportx
property int viewporty
property float k1
property float k2
end_header
-16.691895 108.08602 -82.505005 0 0 0
-16.591459 108.21666 -82.296265 0 0 0
-16.397055 108.40016 -82.336319 0 0 0
-16.280035 108.46758 -82.603065 0 0 0
-16.230886 108.45646 -82.883858 0 0 0
-16.224312 108.39464 -83.152184 0 0 0
-16.478264 108.33961 -82.067093 0 0 0
-16.27124 108.52271 -82.090065 0 0 0
-16.215075 108.56284 -82.336578 0 0 0
-16.049519 108.66894 -82.455338 0 0 0
-16.062796 108.62274 -82.706375 0 0 0
-16.071558 108.52637 -83.115501 0 0 0
-16.043097 108.69142 -82.155022 0 0 0
-15.824034 108.83255 -82.337044 0 0 0
-15.820017 108.80931 -82.576363 0 0 0
-15.839879 108.76186 -82.802452 0 0 0
-15.926336 108.76788 -81.895531 0 0 0
-15.684518 108.91685 -81.901756 0 0 0
-15.618915 108.95433 -82.179573 0 0 0
-15.572527 108.96678 -82.474388 0 0 0
-15.614694 108.90018 -82.767517 0 0 0
-15.710802 108.79477 -83.017693 0 0 0
-15.773208 108.84646 -81.674141 0 0 0
-15.559573 108.9593 -81.643112 0 0 0
-15.463319 109.03356 -81.920357 0 0 0
-15.405927 109.06225 -82.221436 0 0 0
-15.311687 109.09509 -82.47876 0 0 0
-15.392268 109.02409 -82.730316 0 0 0
-15.738072 108.83591 -81.406387 0 0 0
-15.469648 108.97123 -81.391136 0 0 0
-15.309288 109.08392 -81.664513 0 0 0
-15.244112 109.13954 -81.972282 0 0 0
-15.163727 109.17696 -82.247322 0 0 0
-15.585542 108.86671 -81.122856 0 0 0
-15.335417 108.9888 -81.113129 0 0 0
-15.237466 109.0793 -81.371696 0 0 0
-15.06284 109.1789 -81.554115 0 0 0
-15.063708 109.20489 -81.79731 0 0 0
-14.992702 109.24076 -82.063202 0 0 0
-15.410501 108.89446 -80.852562 0 0 0
-15.145369 109.01163 -80.85968 0 0 0
-15.088369 109.09446 -81.106331 0 0 0
-15.010742 109.16723 -81.321747 0 0 0
-14.80085 109.25889 -81.41555 0 0 0
-14.824347 109.28076 -81.646736 0 0 0
-15.180707 108.91705 -80.602341 0 0 0
-14.918711 109.03439 -80.63282 0 0 0
-14.894292 109.12341 -80.901367 0 0 0
-14.835627 109.20068 -81.154297 0 0 0
-14.604409 109.29394 -81.254082 0 0 0
-14.548182 109.34772 -81.51503 0 0 0
-14.940878 108.93667 -80.369324 0 0 0
-14.663293 109.05447 -80.435081 0 0 0
-14.689371 109.14062 -80.72467 0 0 0
-14.644461 109.22646 -80.99382 0 0 0
-14.384485 109.32015 -81.100586 0 0 0
-14.372101 109.36836 -81.32785 0 0 0
-14.973072 108.80573 -80.093384 0 0 0
-14.713469 108.93003 -80.159851 0 0 0
-14.432518 109.0418 -80.229446 0 0 0
-14.340348 109.14108 -80.440369 0 0 0
-14.486036 109.16338 -80.613899 0 0 0
-14.437971 109.2466 -80.854347 0 0 0
-14.723271 108.78596 -79.872963 0 0 0
-14.483468 108.93053 -79.989464 0 0 0
-14.174969 109.03462 -80.060432 0 0 0
-14.050901 109.2235 -80.502472 0 0 0
-14.237419 109.24254 -80.686913 0 0 0
-14.184987 109.3256 -80.954857 0 0 0
-14.788117 108.63829 -79.645004 0 0 0
-14.528782 108.69884 -79.592422 0 0 0
-14.413429 108.82328 -79.746208 0 0 0
-14.235061 108.93108 -79.867638 0 0 0
-13.854905 109.09079 -80.077629 0 0 0
-13.838229 109.18887 -80.326263 0 0 0
-14.619441 108.53534 -79.391121 0 0 0
-14.346383 108.59124 -79.343094 0 0 0
-14.219721 108.73398 -79.50824 0 0 0
-14.097966 108.85077 -79.671074 0 0 0
-14.492286 108.42429 -79.168205 0 0 0
-14.199886 108.47747 -79.131165 0 0 0
-14.028358 108.63759 -79.300041 0 0 0
-13.884936 108.77028 -79.468925 0 0 0
-13.825086 108.88268 -79.658524 0 0 0
-14.652039 108.24007 -79.01667 0 0 0
-14.349878 108.30096 -78.967445 0 0 0
-14.062063 108.34179 -78.929871 0 0 0
-13.906529 108.52152 -79.10704 0 0 0
-13.682096 108.67091 -79.290512 0 0 0
-13.578788 108.83089 -79.540276 0 0 0
-13.783902 108.36531 -78.899902 0 0 0
-13.65696 108.52271 -79.072906 0 0 0
-13.408237 108.56898 -79.124069 0 0 0
-13.36601 108.71135 -79.334816 0 0 0
-13.287072 108.85464 -79.578194 0 0 0
-13.41941 108.97601 -79.796677 0 0 0
-13.501094 108.39307 -78.906502 0 0 0
-13.233012 108.42245 -78.944809 0 0 0
-13.096858 108.56327 -79.14502 0 0 0
-13.090922 108.72465 -79.380478 0 0 0
-13.014304 108.8663 -79.629601 0 0 0
-13.162059 108.98949 -79.841003 0 0 0
-13.349261 108.23985 -78.737877 0 0 0
-13.107356 108.25867 -78.762871 0 0 0
-12.961384 108.37101 -78.916565 0 0 0
-12.780864 108.46613 -79.067337 0 0 0
-12.81995 108.61231 -79.258415 0 0 0
-12.852009 108.7522 -79.460922 0 0 0
-12.697362 108.25574 -78.834076 0 0 0
-12.541737 108.36054 -79.011597 0 0 0
-12.500619 108.51014 -79.225777 0 0 0
-12.602695 108.67751 -79.428162 0 0 0
-12.423957 108.18116 -78.840347 0 0 0
-12.310491 108.33436 -79.07106 0 0 0
-12.176029 108.45257 -79.285645 0 0 0
-12.335542 108.61121 -79.436264 0 0 0
-12.477633 108.78296 -79.638184 0 0 0
-12.128676 108.13525 -78.92038 0 0 0
-12.071758 108.26771 -79.100395 0 0 0
-11.871545 108.41912 -79.406288 0 0 0
-12.054655 108.57383 -79.510536 0 0 0
-12.210443 108.72189 -79.658913 0 0 0
-11.831211 108.09832 -79.045074 0 0 0
-11.687365 108.22778 -79.275162 0 0 0
-11.598495 108.36459 -79.511131 0 0 0
-11.779501 108.53251 -79.625694 0 0 0
-11.957635 108.68993 -79.748665 0 0 0
-12.358954 108.86404 -79.820671 0 0 0
-11.446085 108.1787 -79.38929 0 0 0
-11.337501 108.31413 -79.643959 0 0 0
-11.516203 108.48911 -79.745712 0 0 0
-11.708276 108.65022 -79.856255 0 0 0
-11.904372 108.80636 -79.988693 0 0 0
-11.206895 108.13634 -79.527893 0 0 0
-11.081355 108.24439 -79.791862 0 0 0
-11.266148 108.43844 -79.887939 0 0 0
-11.464152 108.6082 -79.987206 0 0 0
-11.668054 108.76252 -80.086136 0 0 0
-11.874951 108.91406 -80.231796 0 0 0
-11.103748 107.94833 -79.402611 0 0 0
-10.980078 108.02435 -79.608788 0 0 0
-10.693036 108.09398 -79.996178 0 0 0
-11.046472 108.40952 -80.060997 0 0 0
-11.239476 108.57719 -80.146667 0 0 0
-11.446114 108.73609 -80.237785 0 0 0
-10.7535 107.84753 -79.623085 0 0 0
-10.543625 107.69856 -79.686958 0 0 0
-10.269753 107.68275 -80.013214 0 0 0
-10.318206 107.87761 -80.196442 0 0 0
-10.389686 108.07922 -80.38726 0 0 0
-10.631638 108.19175 -80.22081 0 0 0
-10.825443 108.37949 -80.273903 0 0 0
-10.134711 107.68031 -80.19796 0 0 0
-10.175694 107.88228 -80.416786 0 0 0
-10.196261 108.03198 -80.649574 0 0 0
-10.380479 108.21004 -80.645752 0 0 0
-10.595077 108.29504 -80.442024 0 0 0
-9.9987307 107.66822 -80.395309 0 0 0
-10.007799 107.83658 -80.658997 0 0 0
-10.011115 107.97556 -80.911819 0 0 0
-10.208165 108.17332 -80.909515 0 0 0
-10.411323 108.3504 -80.896362 0 0 0
-10.572728 108.38162 -80.661652 0 0 0
-9.8699741 107.64369 -80.609856 0 0 0
-9.8237524 107.74077 -80.882118 0 0 0
-9.8661242 107.92293 -81.169823 0 0 0
-10.058217 108.13146 -81.182808 0 0 0
-10.264413 108.32202 -81.160019 0 0 0
-9.7206841 107.47758 -80.655907 0 0 0
-9.6419306 107.51534 -80.901031 0 0 0
-9.6971273 107.70656 -81.15638 0 0 0
-9.7375708 107.85773 -81.447403 0 0 0
-9.927083 108.08283 -81.470322 0 0 0
-10.134692 108.28343 -81.450722 0 0 0
-9.499198 107.3209 -80.938362 0 0 0
-9.533843 107.47755 -81.162544 0 0 0
-9.5694914 107.62746 -81.413689 0 0 0
-9.6032372 107.74329 -81.712677 0 0 0
-9.792079 107.97652 -81.742317 0 0 0
-10.023941 108.23109 -81.753395 0 0 0
-9.3839636 107.2183 -81.143661 0 0 0
-9.4146137 107.36259 -81.371208 0 0 0
-9.3512354 107.35547 -81.75602 0 0 0
-9.4681387 107.56322 -81.925819 0 0 0
-9.634346 107.80499 -82.020676 0 0 0
-9.8498392 108.06071 -81.999359 0 0 0
-9.2620583 106.9513 -81.107635 0 0 0
-9.2665558 107.07937 -81.33931 0 0 0
-9.2993336 107.21728 -81.552551 0 0 0
-9.209753 107.0831 -81.760872 0 0 0
-9.3093891 107.30451 -81.925713 0 0 0
-9.4550924 107.55579 -82.21788 0 0 0
-9.1517677 106.79725 -81.308495 0 0 0
-9.1654444 106.93056 -81.561646 0 0 0
-9.0874796 106.82713 -81.829918 0 0 0
-9.096487 106.90208 -82.13134 0 0 0
-9.143652 107.00987 -82.419189 0 0 0
-9.2954998 107.28545 -82.430206 0 0 0
-8.977932 106.54756 -81.812202 0 0 0
-9.0016136 106.66616 -82.064285 0 0 0
-9.0305986 106.76648 -82.349113 0 0 0
-9.0627098 106.82545 -82.617775 0 0 0
-9.1831369 107.06515 -82.671555 0 0 0
-8.8933668 106.30989 -81.827278 0 0 0
-8.9041777 106.39954 -82.118851 0 0 0
-8.8800621 106.34615 -82.475624 0 0 0
-8.9620838 106.57595 -82.563347 0 0 0
-8.9890757 106.62013 -82.812164 0 0 0
-9.0876703 106.81747 -82.897369 0 0 0
-8.873477 106.14664 -81.638153 0 0 0
-8.8132381 106.03069 -81.854912 0 0 0
-8.8372574 106.18304 -82.060722 0 0 0
-8.8230314 106.16077 -82.339264 0 0 0
-8.8234377 106.13192 -82.679909 0 0 0
-8.9031916 106.38456 -82.792786 0 0 0
-8.8912926 106.07059 -81.419914 0 0 0
-8.8867197 106.22359 -83.032745 0 0 0
-8.9898262 106.52356 -83.076973 0 0 0
-8.9750595 106.30225 -83.327942 0 0 0
-9.0750837 106.57713 -83.36261 0 0 0
-9.1264019 106.80718 -83.147858 0 0 0
-9.2153263 107.06575 -82.947281 0 0 0
-9.3118553 107.28888 -82.727814 0 0 0
-9.0035458 106.12592 -83.595078 0 0 0
-9.0937805 106.3837 -83.635384 0 0 0
-9.1879129 106.64902 -83.62748 0 0 0
-9.2058563 106.84911 -83.388336 0 0 0
-9.2727842 107.08329 -83.203384 0 0 0
-9.3679409 107.30013 -83.014214 0 0 0
-9.0481558 105.9417 -83.824448 0 0 0
-9.1608639 106.20267 -83.92057 0 0 0
-9.2398252 106.50397 -83.892624 0 0 0
-9.3290443 106.78973 -83.840485 0 0 0
-9.2949638 106.89787 -83.605148 0 0 0
-9.3592339 107.11353 -83.447174 0 0 0
-9.1675262 105.92598 -84.097687 0 0 0
-9.293458 106.10365 -84.243965 0 0 0
-9.4102707 106.69715 -84.094093 0 0 0
-9.4761324 106.9826 -83.942955 0 0 0
-9.428606 107.08205 -83.702156 0 0 0
-9.4855022 106.52144 -84.325668 0 0 0
-9.5862837 106.79267 -84.317848 0 0 0
-9.5791779 106.97411 -84.163811 0 0 0
-9.6231031 107.18673 -84.006798 0 0 0
-9.5897932 107.28094 -83.784378 0 0 0
-9.5337 107.3348 -83.544052 0 0 0
-9.6422062 106.63273 -84.493065 0 0 0
-9.7732782 106.85252 -84.536148 0 0 0
-9.7559948 107.04646 -84.370285 0 0 0
-9.9068213 107.28944 -84.375282 0 0 0
-9.7486515 107.41801 -83.935036 0 0 0
-9.7239933 107.53999 -83.659813 0 0 0
-9.7797041 106.34473 -84.824615 0 0 0
-9.9193087 106.82645 -84.727982 0 0 0
-9.9331722 107.08105 -84.578484 0 0 0
-10.076345 107.34573 -84.545235 0 0 0
-10.079339 107.52299 -84.348656 0 0 0
-9.9077244 107.47281 -84.149658 0 0 0
-9.9630651 106.33713 -85.050316 0 0 0
-10.094999 106.99631 -84.81575 0 0 0
-10.113737 107.19289 -84.715134 0 0 0
-10.261033 107.38114 -84.73304 0 0 0
-10.259715 107.56787 -84.541771 0 0 0
-10.145445 106.27386 -85.27565 0 0 0
-10.27047 106.91479 -85.034935 0 0 0
-10.280746 107.15237 -84.903694 0 0 0
-10.437681 107.34723 -84.914841 0 0 0
-10.425524 107.57651 -84.732635 0 0 0
-10.470959 107.1339 -85.080681 0 0 0
-10.642621 107.3509 -85.08239 0 0 0
-10.579388 107.53487 -84.90667 0 0 0
-10.628483 107.75505 -84.761703 0 0 0
-10.466375 107.77959 -84.553581 0 0 0
-10.658719 106.89452 -85.361 0 0 0
-10.856936 107.41164 -85.195137 0 0 0
-10.767627 107.61421 -85.004875 0 0 0
-10.831582 107.84914 -84.846764 0 0 0
-10.697357 107.97258 -84.571556 0 0 0
-10.953182 106.73619 -85.654221 0 0 0
-11.205548 106.81234 -85.766663 0 0 0
-11.3231 107.05028 -85.693542 0 0 0
-11.238083 107.66937 -85.267105 0 0 0
-10.993971 107.6875 -85.106758 0 0 0
-11.738007 106.84254 -86.013435 0 0 0
-11.762794 107.57447 -85.552841 0 0 0
-11.673697 107.8121 -85.377197 0 0 0
-11.431521 107.85259 -85.243378 0 0 0
-11.204166 107.89594 -85.08284 0 0 0
-11.030445 107.93389 -84.92717 0 0 0
-12.074868 107.18459 -85.922722 0 0 0
-12.019644 107.60225 -85.625374 0 0 0
-11.903947 107.78124 -85.480782 0 0 0
-11.884088 107.99222 -85.336426 0 0 0
-11.635564 108.01772 -85.212387 0 0 0
-12.368493 107.25201 -85.952934 0 0 0
-12.271418 107.67523 -85.65062 0 0 0
-12.122134 107.89754 -85.480576 0 0 0
-12.068479 108.1659 -85.269165 0 0 0
-11.836732 108.19584 -85.140556 0 0 0
-12.690069 107.576 -85.790428 0 0 0
-12.562471 107.72796 -85.670021 0 0 0
-12.389632 107.89397 -85.539391 0 0 0
-12.283198 108.11329 -85.369339 0 0 0
-12.262591 108.34122 -85.147377 0 0 0
-12.00065 108.36774 -85.02858 0 0 0
-12.974761 108.02414 -85.527702 0 0 0
-12.5215 108.06856 -85.447464 0 0 0
-12.496642 108.25192 -85.305672 0 0 0
-12.512532 108.40238 -85.150688 0 0 0
-12.443856 108.53471 -84.974869 0 0 0
-12.179849 108.50793 -84.915985 0 0 0
-13.141222 107.41164 -85.937424 0 0 0
-13.263557 108.15349 -85.453171 0 0 0
-13.006677 108.25464 -85.373772 0 0 0
-12.758023 108.15044 -85.423409 0 0 0
-12.752176 108.33904 -85.261543 0 0 0
-12.699293 108.51578 -85.055962 0 0 0
-13.432641 107.96313 -85.575218 0 0 0
-13.581549 108.10284 -85.471832 0 0 0
-13.484254 108.33582 -85.294861 0 0 0
-13.224565 108.37913 -85.258781 0 0 0
-12.962034 108.44028 -85.181038 0 0 0
-13.608742 107.60838 -85.788681 0 0 0
-13.881751 108.05339 -85.46524 0 0 0
-13.728853 108.27238 -85.327171 0 0 0
-13.998464 108.49445 -85.044159 0 0 0
-13.425413 108.52585 -85.09034 0 0 0
-13.147541 108.56297 -85.04805 0 0 0
-14.017506 107.82823 -85.589302 0 0 0
-14.178825 108.05925 -85.4039 0 0 0
-13.964026 108.28701 -85.271599 0 0 0
-14.435745 107.52073 -85.682419 0 0 0
-14.460224 107.95251 -85.406914 0 0 0
-14.438753 108.18015 -85.244415 0 0 0
-14.209904 108.30827 -85.189438 0 0 0
-14.714263 107.47601 -85.62233 0 0 0
-14.722739 107.84203 -85.386284 0 0 0
-14.698602 108.05538 -85.241211 0 0 0
-14.687693 108.26534 -85.059937 0 0 0
-14.453422 108.39219 -85.02179 0 0 0
-14.239982 108.50097 -84.96682 0 0 0
-14.942448 107.88108 -85.270599 0 0 0
-14.939606 108.11335 -85.086044 0 0 0
-14.90856 108.32092 -84.888641 0 0 0
-14.657721 108.46957 -84.833466 0 0 0
-14.40558 108.59879 -84.769943 0 0 0
-14.13337 108.66166 -84.77906 0 0 0
-15.057365 107.04864 -85.774132 0 0 0
-15.163736 107.93333 -85.122108 0 0 0
-15.168758 108.1509 -84.92083 0 0 0
-15.088597 108.37071 -84.71447 0 0 0
-14.858427 108.5192 -84.652969 0 0 0
-14.599655 108.65179 -84.584976 0 0 0
-15.394157 107.23734 -85.466118 0 0 0
-15.375615 107.73215 -85.145576 0 0 0
-15.385025 107.94617 -84.985603 0 0 0
-15.455667 108.0946 -84.787605 0 0 0
-15.299987 108.25011 -84.726463 0 0 0
-15.570934 107.0228 -85.5047 0 0 0
-15.674379 107.16833 -85.332497 0 0 0
-15.610729 107.74124 -84.988167 0 0 0
-15.610658 107.9329 -84.83622 0 0 0
-15.722301 108.03579 -84.621994 0 0 0
-15.522288 108.22116 -84.57769 0 0 0
-16.011343 107.6431 -84.751236 0 0 0
-15.804937 107.79587 -84.797821 0 0 0
-15.961004 107.85485 -84.595772 0 0 0
-15.903303 108.04214 -84.427849 0 0 0
-15.693551 108.23644 -84.383186 0 0 0
-16.131678 107.86809 -84.387352 0 0 0
-16.068123 108.05474 -84.207787 0 0 0
-15.872025 108.19247 -84.237938 0 0 0
-15.744848 108.36057 -84.108269 0 0 0
-15.537876 108.45462 -84.196556 0 0 0
-15.479783 108.36858 -84.397598 0 0 0
-16.264908 107.89741 -84.166473 0 0 0
-16.17474 108.09629 -83.974129 0 0 0
-15.96549 108.24229 -84.017395 0 0 0
-15.831594 108.42222 -83.857613 0 0 0
-15.592557 108.53966 -83.94841 0 0 0
-16.464397 107.72881 -84.117859 0 0 0
-16.065594 108.28079 -83.78717 0 0 0
-15.933739 108.45454 -83.611847 0 0 0
-15.676141 108.59366 -83.698364 0 0 0
-16.045366 108.46438 -83.369034 0 0 0
-15.85807 108.64413 -83.210365 0 0 0
-15.50543 108.75879 -83.537643 0 0 0
-15.411263 108.70787 -83.794907 0 0 0
-15.346845 108.62679 -84.061348 0 0 0
-15.608978 108.78615 -83.263649 0 0 0
-15.366864 108.89449 -83.346565 0 0 0
-15.221498 108.86358 -83.631004 0 0 0
-15.155955 108.77189 -83.938843 0 0 0
-15.087339 108.67374 -84.213272 0 0 0
-15.292491 108.53024 -84.305389 0 0 0
-15.458741 108.9332 -83.028008 0 0 0
-15.240232 109.01446 -83.16153 0 0 0
-15.102777 109.00692 -83.386398 0 0 0
-14.940633 109.01054 -83.573769 0 0 0
-14.989566 108.88955 -83.829803 0 0 0
-14.865561 108.80534 -84.129669 0 0 0
-15.197743 109.08664 -82.930489 0 0 0
-14.990717 109.12885 -83.131393 0 0 0
-14.819781 109.12933 -83.346436 0 0 0
-14.623557 109.12202 -83.563522 0 0 0
-14.773198 109.01264 -83.731934 0 0 0
-15.11079 109.16179 -82.695251 0 0 0
-14.90566 109.21115 -82.876846 0 0 0
-14.723645 109.2366 -83.092484 0 0 0
-14.366106 109.22221 -83.496971 0 0 0
-14.334782 109.14981 -83.719154 0 0 0
-15.051311 109.20409 -82.482056 0 0 0
-14.808948 109.27412 -82.616943 0 0 0
-14.618644 109.30749 -82.839462 0 0 0
-14.434309 109.31863 -83.058167 0 0 0
-14.254252 109.30385 -83.292297 0 0 0
-14.089416 109.2565 -83.570747 0 0 0
-14.7309 109.33166 -82.138702 0 0 0
-14.647058 109.34485 -82.393204 0 0 0
-14.492424 109.3709 -82.612015 0 0 0
-14.30925 109.39062 -82.805908 0 0 0
-14.147085 109.38338 -83.037697 0 0 0
-14.811378 109.30167 -81.897446 0 0 0
-14.54239 109.38338 -81.950745 0 0 0
-14.3834 109.41537 -82.400909 0 0 0
-14.169038 109.457 -82.535843 0 0 0
-14.020169 109.45387 -82.785072 0 0 0
-13.852946 109.43389 -83.020859 0 0 0
-14.618421 109.35142 -81.738335 0 0 0
-14.378594 109.41473 -81.728317 0 0 0
-14.278343 109.44581 -81.969254 0 0 0
-13.963376 109.50417 -82.281036 0 0 0
-13.879363 109.50414 -82.545441 0 0 0
-13.718718 109.49226 -82.802681 0 0 0
-14.239481 109.42304 -81.506546 0 0 0
-14.110108 109.46941 -81.738251 0 0 0
-14.02083 109.49451 -81.995636 0 0 0
-13.769466 109.52485 -82.018448 0 0 0
-13.705977 109.53486 -82.291969 0 0 0
-13.609937 109.53215 -82.554428 0 0 0
-14.122322 109.39789 -81.244591 0 0 0
-13.954432 109.46303 -81.499023 0 0 0
-13.834978 109.5062 -81.742119 0 0 0
-13.569633 109.53068 -81.769089 0 0 0
-13.515449 109.54877 -82.047638 0 0 0
-13.450936 109.55258 -82.310211 0 0 0
-13.952903 109.3789 -81.022865 0 0 0
-13.84008 109.44145 -81.282997 0 0 0
-13.640125 109.49725 -81.497215 0 0 0
-13.332836 109.51727 -81.565102 0 0 0
-13.265679 109.55875 -82.112518 0 0 0
-13.189339 109.55505 -82.381767 0 0 0
-13.991103 109.30717 -80.756317 0 0 0
-13.512899 109.38871 -80.910683 0 0 0
-13.729295 109.40796 -81.050858 0 0 0
-13.580866 109.45378 -81.222885 0 0 0
-13.773182 109.27891 -80.582085 0 0 0
-13.460565 109.31517 -80.644371 0 0 0
-13.255558 109.36696 -80.832817 0 0 0
-13.362015 109.42801 -81.077599 0 0 0
-13.586018 109.24508 -80.431618 0 0 0
-13.33394 109.23233 -80.375725 0 0 0
-13.140393 109.29153 -80.594551 0 0 0
-12.715238 109.33653 -80.866165 0 0 0
-13.130776 109.42502 -81.0914 0 0 0
-13.570783 109.16317 -80.201744 0 0 0
-13.29035 109.11637 -80.08873 0 0 0
-13.064441 109.20317 -80.339714 0 0 0
-12.822285 109.26079 -80.580513 0 0 0
-13.559967 109.07542 -79.997101 0 0 0
-12.764319 109.05688 -80.049843 0 0 0
-12.799638 109.16553 -80.30191 0 0 0
-12.884454 108.5956 -84.986137 0 0 0
-12.673466 108.67885 -84.82795 0 0 0
-12.397915 108.66944 -84.76754 0 0 0
-12.986638 108.70901 -84.840622 0 0 0
-12.830164 108.81911 -84.647491 0 0 0
-12.552465 108.81082 -84.590904 0 0 0
-12.291817 108.78568 -84.535927 0 0 0
-12.145759 108.6364 -84.716751 0 0 0
-11.897216 108.52235 -84.772659 0 0 0
-13.291919 108.688 -84.879272 0 0 0
-13.133324 108.82054 -84.677811 0 0 0
-12.993226 108.93326 -84.471283 0 0 0
-12.639666 109.03831 -84.202774 0 0 0
-12.421237 108.92775 -84.33432 0 0 0
-13.581247 108.65763 -84.891891 0 0 0
-13.431104 108.80996 -84.689964 0 0 0
-13.274286 108.92298 -84.498032 0 0 0
-13.159286 109.03735 -84.285378 0 0 0
-12.900815 109.04445 -84.253593 0 0 0
-13.851576 108.65281 -84.856583 0 0 0
-13.713161 108.80601 -84.654823 0 0 0
-13.403855 109.02138 -84.311302 0 0 0
-13.37531 109.12419 -84.100754 0 0 0
-13.090415 109.13869 -84.067001 0 0 0
-12.836775 109.14574 -84.022331 0 0 0
-13.996314 108.80676 -84.596207 0 0 0
-13.817662 108.94558 -84.386002 0 0 0
-13.632309 109.06001 -84.197746 0 0 0
-13.605052 109.18284 -83.933083 0 0 0
-13.282153 109.21503 -83.899742 0 0 0
-12.993096 109.23255 -83.836418 0 0 0
-14.307804 108.77277 -84.529846 0 0 0
-14.075463 108.9233 -84.342979 0 0 0
-13.871594 109.08457 -84.085716 0 0 0
-13.851735 109.22054 -83.780701 0 0 0
-13.613218 109.29507 -83.642456 0 0 0
-13.413436 109.27586 -83.737625 0 0 0
-14.587886 108.79276 -84.345833 0 0 0
-14.342853 108.90607 -84.264404 0 0 0
-14.127769 109.02689 -84.111511 0 0 0
-14.086172 109.14613 -83.866035 0 0 0
-13.821789 109.31938 -83.494637 0 0 0
-14.843142 108.67874 -84.396324 0 0 0
-14.576538 108.91379 -84.104103 0 0 0
-14.339032 109.03951 -83.983566 0 0 0
-15.069133 108.54375 -84.471184 0 0 0
-15.281985 108.39551 -84.532959 0 0 0
-13.740006 109.3998 -83.228943 0 0 0
-13.548656 109.38835 -83.343872 0 0 0
-13.350331 109.35266 -83.488335 0 0 0
-13.154107 109.29915 -83.658531 0 0 0
-13.522486 109.4598 -83.041809 0 0 0
-13.194007 109.49043 -82.948364 0 0 0
-13.086556 109.37172 -83.415894 0 0 0
-12.874024 109.30385 -83.595924 0 0 0
-13.429954 109.51143 -82.79361 0 0 0
-13.164085 109.53406 -82.668396 0 0 0
-12.926588 109.51605 -82.732857 0 0 0
-12.87844 109.47267 -82.95665 0 0 0
-13.028316 109.43325 -83.170341 0 0 0
-12.934476 109.53915 -82.462372 0 0 0
-12.681251 109.50961 -82.521965 0 0 0
-12.645616 109.48524 -82.778328 0 0 0
-12.577104 109.42485 -83.015007 0 0 0
-12.540092 109.355 -83.275085 0 0 0
-13.004701 109.55164 -82.214096 0 0 0
-12.709837 109.52485 -82.253731 0 0 0
-12.423317 109.46488 -82.600151 0 0 0
-12.373795 109.42584 -82.855415 0 0 0
-12.314196 109.36088 -83.097969 0 0 0
-13.086651 109.54506 -81.924164 0 0 0
-12.671492 109.52091 -81.963814 0 0 0
-12.457422 109.48917 -82.088585 0 0 0
-12.193514 109.4412 -82.181831 0 0 0
-12.165162 109.42316 -82.457741 0 0 0
-12.172588 109.40746 -82.689354 0 0 0
-13.036944 109.52049 -81.61972 0 0 0
-12.753448 109.50986 -81.664764 0 0 0
-12.490472 109.48912 -81.807541 0 0 0
-12.247128 109.44685 -81.911476 0 0 0
-11.982956 109.38101 -81.987389 0 0 0
-11.951089 109.37118 -82.319923 0 0 0
-13.071 109.47845 -81.35984 0 0 0
-12.56179 109.47192 -81.547409 0 0 0
-12.311949 109.43408 -81.604889 0 0 0
-12.106277 109.39861 -81.706848 0 0 0
-12.872788 109.41479 -81.120148 0 0 0
-12.595887 109.39401 -81.145561 0 0 0
-12.434158 109.41521 -81.355988 0 0 0
-12.120876 109.35227 -81.402145 0 0 0
-11.92154 109.33662 -81.65461 0 0 0
-12.439524 109.31662 -80.935089 0 0 0
-12.274986 109.3343 -81.140663 0 0 0
-12.002645 109.2663 -81.137505 0 0 0
-11.829581 109.26628 -81.38044 0 0 0
-11.695108 109.25405 -81.601639 0 0 0
-11.741182 109.30568 -81.874001 0 0 0
-12.551959 109.18205 -80.445824 0 0 0
-12.263371 109.17334 -80.570793 0 0 0
-12.179563 109.24472 -80.859947 0 0 0
-11.878935 109.16772 -80.91404 0 0 0
-11.701004 109.17371 -81.169556 0 0 0
-11.522798 109.15802 -81.431221 0 0 0
-12.554261 109.07487 -80.171104 0 0 0
-12.314436 109.08068 -80.301231 0 0 0
-12.062008 109.05208 -80.402275 0 0 0
-11.993608 109.12707 -80.66333 0 0 0
-11.800104 108.99294 -80.476288 0 0 0
-11.597596 109.07692 -80.947235 0 0 0
-12.590733 108.94616 -79.882332 0 0 0
-12.881054 108.97103 -79.846245 0 0 0
-12.361062 100.71664 -83.478477 0 0 0
-12.624338 100.6228 -83.420486 0 0 0
-12.910071 100.55546 -83.312584 0 0 0
-13.079551 100.49523 -83.477837 0 0 0
-12.449368 100.64979 -83.18618 0 0 0
-12.703204 100.59264 -83.176414 0 0 0
-12.925425 100.57168 -83.029488 0 0 0
-13.183598 100.5201 -83.179993 0 0 0
-12.622558 100.60863 -82.939117 0 0 0
-14.278225 100.54562 -83.322464 0 0 0
-14.555363 100.63831 -83.358315 0 0 0
-13.47812 100.49229 -83.232483 0 0 0
-13.766125 100.47694 -83.306946 0 0 0
-13.991492 100.54077 -83.174431 0 0 0
-14.187278 100.61997 -83.031288 0 0 0
-14.439912 100.66633 -83.126625 0 0 0
-13.401026 100.561 -82.965988 0 0 0
-13.686892 100.54984 -83.058434 0 0 0
-13.891356 100.60664 -82.908493 0 0 0
-14.04936 100.64469 -82.774055 0 0 0
-14.242145 100.68696 -82.767448 0 0 0
-14.630955 100.76485 -82.925751 0 0 0
-13.139349 100.5702 -82.861282 0 0 0
-13.355766 100.57854 -82.654961 0 0 0
-13.625147 100.59509 -82.778862 0 0 0
-13.577588 100.61258 -82.495476 0 0 0
-13.793684 100.65781 -82.360283 0 0 0
-14.145094 100.69826 -82.530296 0 0 0
-12.857599 100.57348 -82.747238 0 0 0
-13.090549 100.56367 -82.551125 0 0 0
-13.330169 100.58964 -82.334114 0 0 0
-12.562988 100.57588 -82.679977 0 0 0
-12.792501 100.55235 -82.461327 0 0 0
-13.021901 100.54873 -82.280365 0 0 0
-13.610097 100.63236 -82.203461 0 0 0
-13.89019 100.68796 -82.11441 0 0 0
-14.329136 100.76088 -82.307396 0 0 0
-14.858851 100.84149 -82.742355 0 0 0
-13.731963 100.6498 -81.906006 0 0 0
-14.007348 100.71713 -81.870766 0 0 0
-14.29662 100.77711 -81.844482 0 0 0
-15.06699 100.89877 -82.56707 0 0 0
-15.087171 100.89477 -82.858994 0 0 0
-14.85638 100.82679 -82.963974 0 0 0
-14.708334 100.73964 -83.155434 0 0 0
-13.856383 100.67187 -81.652306 0 0 0
-14.270664 100.78213 -81.407501 0 0 0
-14.773019 100.90903 -81.281128 0 0 0
-15.200448 100.96567 -81.379211 0 0 0
-15.281611 100.9342 -82.453247 0 0 0
-15.622218 100.98371 -82.841446 0 0 0
-15.495814 100.97497 -83.096275 0 0 0
-14.002666 100.71284 -81.421844 0 0 0
-14.136828 100.75257 -81.197327 0 0 0
-14.34576 100.8145 -81.136612 0 0 0
-14.565444 100.91003 -80.638016 0 0 0
-14.858401 100.96284 -80.671532 0 0 0
-15.429254 101.02486 -80.562912 0 0 0
-15.827574 101.0191 -81.646446 0 0 0
-15.485822 100.96267 -82.283081 0 0 0
-14.136898 100.76889 -80.930382 0 0 0
-14.283096 100.82845 -80.690926 0 0 0
-14.429565 100.8989 -80.411316 0 0 0
-14.672288 100.95498 -80.382416 0 0 0
-14.931023 100.98578 -80.388382 0 0 0
-15.202062 101.01154 -80.36338 0 0 0
-15.466748 101.06459 -80.270752 0 0 0
-15.688037 101.0891 -80.4543 0 0 0
-15.669955 101.05045 -80.750732 0 0 0
-15.621777 101.02301 -81.074028 0 0 0
-15.946319 101.17101 -80.609627 0 0 0
-15.883209 101.09277 -80.909515 0 0 0
-15.894926 101.06487 -81.214188 0 0 0
-16.044382 101.08113 -81.520592 0 0 0
-16.031073 101.04716 -81.818359 0 0 0
-15.761892 101.00011 -81.891205 0 0 0
-16.15152 101.23699 -80.856331 0 0 0
-16.097828 101.16061 -81.076355 0 0 0
-16.156424 101.15173 -81.306564 0 0 0
-16.328714 101.21215 -81.49012 0 0 0
-16.27244 101.13932 -81.76104 0 0 0
-16.217985 101.09671 -82.054031 0 0 0
-15.96515 101.01639 -82.089676 0 0 0
-16.345484 101.28882 -81.166786 0 0 0
-16.514826 101.30286 -81.738251 0 0 0
-16.427977 101.22947 -82.018471 0 0 0
-16.344149 101.17174 -82.356552 0 0 0
-16.135841 101.06298 -82.310722 0 0 0
-15.926093 101.0086 -82.379639 0 0 0
-16.655647 101.41395 -82.009514 0 0 0
-16.557716 101.32104 -82.228394 0 0 0
-16.549494 101.31929 -82.457054 0 0 0
-16.410866 101.22562 -82.680061 0 0 0
-16.138205 101.07327 -82.588486 0 0 0
-15.819999 101.00105 -82.623283 0 0 0
-16.730631 101.5013 -81.733414 0 0 0
-16.847843 101.6004 -82.079086 0 0 0
-16.759962 101.51106 -82.332008 0 0 0
-16.66239 101.42895 -82.622337 0 0 0
-16.594946 101.38495 -82.906784 0 0 0
-16.42028 101.25595 -83.004295 0 0 0
-16.210859 101.10397 -82.852974 0 0 0
-16.917864 101.68714 -81.871353 0 0 0
-17.049917 101.83563 -82.119263 0 0 0
-16.980213 101.75246 -82.36113 0 0 0
-16.881739 101.65115 -82.589249 0 0 0
-16.774008 101.5501 -82.818344 0 0 0
-16.915354 101.70801 -81.618469 0 0 0
-17.074881 101.87622 -81.823906 0 0 0
-17.20841 102.04845 -82.053169 0 0 0
-17.183655 102.01461 -82.348351 0 0 0
-17.075487 101.88634 -82.637527 0 0 0
-16.931467 101.73457 -82.883217 0 0 0
-16.754036 101.57856 -83.092514 0 0 0
-17.097868 101.95169 -81.544052 0 0 0
-17.208443 102.0629 -81.780952 0 0 0
-17.35471 102.27332 -81.900482 0 0 0
-17.349495 102.25779 -82.161591 0 0 0
-17.366386 102.28999 -82.413811 0 0 0
-17.256283 102.13589 -82.604439 0 0 0
-17.288403 102.20219 -81.61956 0 0 0
-17.449293 102.44513 -81.721725 0 0 0
-17.50778 102.52912 -81.995781 0 0 0
-17.481451 102.48251 -82.243538 0 0 0
-17.535898 102.60378 -82.461296 0 0 0
-17.423048 102.41384 -82.646049 0 0 0
-17.320442 102.27332 -82.871407 0 0 0
-17.185871 102.06031 -82.844383 0 0 0
-17.58189 102.69418 -81.762131 0 0 0
-17.655077 102.82059 -81.987999 0 0 0
-17.6096 102.73242 -82.235672 0 0 0
-17.683582 102.90717 -82.496506 0 0 0
-17.572538 102.76186 -82.935646 0 0 0
-17.455126 102.51512 -82.874245 0 0 0
-17.708086 102.96761 -81.729156 0 0 0
-17.772507 103.09259 -81.959297 0 0 0
-17.734493 102.99053 -82.225746 0 0 0
-17.803354 103.18999 -82.431519 0 0 0
-17.679703 102.95164 -82.775902 0 0 0
-17.797735 103.22068 -81.696182 0 0 0
-17.864462 103.36716 -81.917786 0 0 0
-17.837088 103.26083 -82.169586 0 0 0
-17.894993 103.45734 -82.357445 0 0 0
-17.87491 103.44412 -82.615707 0 0 0
-17.842077 103.45409 -82.894722 0 0 0
-17.750671 103.1958 -82.939896 0 0 0
-17.871641 103.46774 -81.692268 0 0 0
-17.924788 103.6571 -81.833946 0 0 0
-17.915087 103.5331 -82.094383 0 0 0
-17.947201 103.71597 -82.49836 0 0 0
-17.926668 103.7072 -82.7528 0 0 0
-17.893057 103.67066 -81.536583 0 0 0
-17.944979 103.88597 -81.629372 0 0 0
-17.970415 103.90077 -81.870262 0 0 0
-17.96752 103.81134 -82.078575 0 0 0
-17.997553 103.9762 -82.319237 0 0 0
-17.988111 103.95845 -82.613495 0 0 0
-17.90209 103.90457 -81.356651 0 0 0
-17.986843 104.28719 -81.630577 0 0 0
-17.991589 104.11092 -81.766731 0 0 0
-18.00882 104.08165 -82.045967 0 0 0
-18.033319 104.26866 -82.195656 0 0 0
-18.024729 104.19992 -82.463585 0 0 0
-17.900719 104.17876 -81.209999 0 0 0
-17.948532 104.40975 -81.364082 0 0 0
-17.999807 104.45384 -81.65107 0 0 0
-18.031475 104.33772 -81.921745 0 0 0
-18.041891 104.56403 -82.098618 0 0 0
-18.042044 104.46648 -82.34687 0 0 0
-17.891726 104.46912 -81.082298 0 0 0
-17.942822 104.68439 -81.286133 0 0 0
-18.02717 104.58801 -81.828133 0 0 0
-18.029955 104.77477 -81.941399 0 0 0
-18.041943 104.75175 -82.307106 0 0 0
-18.031908 104.64722 -82.509727 0 0 0
-18.023581 104.43083 -82.612183 0 0 0
-17.902943 104.79617 -81.078636 0 0 0
-17.940266 105.00591 -81.275856 0 0 0
-17.987957 105.08315 -81.677116 0 0 0
-17.981096 105.32895 -81.785164 0 0 0
-18.007662 105.19621 -82.065422 0 0 0
-18.021324 105.03986 -82.320663 0 0 0
-18.018768 104.8932 -82.547508 0 0 0
-17.940796 105.47822 -81.530708 0 0 0
-17.950087 105.6305 -81.790962 0 0 0
-17.979227 105.47805 -82.027184 0 0 0
-17.967798 105.5512 -82.263466 0 0 0
-17.902052 105.76038 -81.518845 0 0 0
-17.894205 105.91602 -81.774376 0 0 0
-17.93342 105.77985 -82.071022 0 0 0
-17.933571 105.7069 -82.416931 0 0 0
-17.992846 105.15352 -82.578865 0 0 0
-17.830313 106.04214 -81.486992 0 0 0
-17.807882 106.20537 -81.716972 0 0 0
-17.862946 106.08051 -82.005402 0 0 0
-17.886431 105.97354 -82.297897 0 0 0
-17.879765 105.86466 -82.615204 0 0 0
-17.917307 105.56576 -82.73468 0 0 0
-17.88625 105.45932 -83.021172 0 0 0
-17.944372 105.25177 -82.8452 0 0 0
-17.981668 104.96337 -82.802078 0 0 0
-17.990509 104.46342 -82.863022 0 0 0
-17.898466 105.19998 -83.155708 0 0 0
-17.941114 104.96244 -83.055763 0 0 0
-17.946363 104.45278 -83.128601 0 0 0
-17.971596 104.23618 -82.963722 0 0 0
-18.003349 104.19428 -82.732796 0 0 0
-17.892721 104.9467 -83.303146 0 0 0
-17.843706 104.82258 -83.537033 0 0 0
-17.842489 104.53909 -83.565643 0 0 0
-17.888367 104.36324 -83.370918 0 0 0
-17.92153 104.15409 -83.172287 0 0 0
-17.958782 103.97437 -82.912018 0 0 0
-17.76123 104.70345 -83.792435 0 0 0
-17.752018 104.41313 -83.814468 0 0 0
-17.808048 104.23223 -83.620361 0 0 0
-17.851528 104.05711 -83.41983 0 0 0
-17.883841 103.89164 -83.190819 0 0 0
-17.660221 104.56573 -84.049225 0 0 0
-17.654228 104.3016 -84.036331 0 0 0
-17.70532 104.09776 -83.867065 0 0 0
-17.748402 103.92806 -83.674828 0 0 0
-17.796587 103.7766 -83.438316 0 0 0
-17.545668 104.36722 -84.265335 0 0 0
-17.590166 104.05904 -84.121109 0 0 0
-17.625177 103.79843 -83.938812 0 0 0
-17.69482 103.64972 -83.682381 0 0 0
-17.738321 103.51005 -83.42836 0 0 0
-17.828802 103.61454 -83.184929 0 0 0
-17.424065 104.27386 -84.485733 0 0 0
-17.468693 104.06186 -84.364861 0 0 0
-17.507017 103.81139 -84.228897 0 0 0
-17.505682 103.56532 -84.114296 0 0 0
-17.586088 103.48412 -83.873711 0 0 0
-17.629112 103.35488 -83.639481 0 0 0
-17.322666 104.04884 -84.630646 0 0 0
-17.361383 103.8182 -84.503365 0 0 0
-17.379559 103.58025 -84.376793 0 0 0
-17.365942 103.33926 -84.275055 0 0 0
-17.464397 103.28419 -84.02948 0 0 0
-17.505285 103.15458 -83.806801 0 0 0
-17.167824 104.0695 -84.872963 0 0 0
-17.198309 103.8215 -84.775169 0 0 0
-17.239725 103.59174 -84.624481 0 0 0
-17.229099 103.32767 -84.505417 0 0 0
-17.199505 103.09309 -84.393654 0 0 0
-17.329905 103.11633 -84.175758 0 0 0
-17.015863 104.12365 -85.082794 0 0 0
-17.009422 103.82194 -85.027069 0 0 0
-17.073709 103.58128 -84.86422 0 0 0
-17.110661 103.35599 -84.701431 0 0 0
-17.039009 103.08247 -84.629951 0 0 0
-16.844965 103.9571 -85.245193 0 0 0
-16.796295 103.69187 -85.230858 0 0 0
-16.907259 103.51667 -85.052025 0 0 0
-16.959793 103.27215 -84.860138 0 0 0
-16.64221 103.83127 -85.421593 0 0 0
-16.563776 103.56314 -85.423973 0 0 0
-16.710506 103.42895 -85.235268 0 0 0
-16.795322 103.22446 -85.039673 0 0 0
-16.830511 102.99993 -84.844208 0 0 0
-16.429695 103.69977 -85.586769 0 0 0
-16.316917 103.43575 -85.597305 0 0 0
-16.488605 103.31274 -85.402168 0 0 0
-16.619841 103.19379 -85.216469 0 0 0
-16.618399 102.992 -85.074715 0 0 0
-16.200602 103.64935 -85.756683 0 0 0
-16.062065 103.43428 -85.791084 0 0 0
-16.103531 103.23652 -85.652618 0 0 0
-16.299061 103.16533 -85.490959 0 0 0
-16.43536 103.03803 -85.287315 0 0 0
-15.972982 103.65215 -85.929581 0 0 0
-15.800488 103.43013 -85.950356 0 0 0
-15.858748 103.23961 -85.7966 0 0 0
-15.88122 103.04013 -85.611336 0 0 0
-16.096355 103.02551 -85.52195 0 0 0
-16.219305 102.90408 -85.349419 0 0 0
-15.862114 103.86262 -86.038429 0 0 0
-15.71611 103.65804 -86.079071 0 0 0
-15.55614 103.46044 -86.083069 0 0 0
-15.58631 103.23278 -85.906731 0 0 0
-15.682919 103.07612 -85.719635 0 0 0
-15.605359 103.89385 -86.185638 0 0 0
-15.453149 103.69501 -86.219307 0 0 0
-15.283497 103.50737 -86.193619 0 0 0
-15.461318 103.03024 -85.731644 0 0 0
-15.342949 103.93967 -86.319656 0 0 0
-15.182254 103.73524 -86.333687 0 0 0
-14.9198 103.77318 -86.442184 0 0 0
-14.480453 103.91853 -86.588394 0 0 0
-14.261452 104.01501 -86.645332 0 0 0
-13.98001 103.93632 -86.638275 0 0 0
-13.808385 104.12881 -86.718613 0 0 0
-13.512361 104.06641 -86.731949 0 0 0
-13.213805 104.01415 -86.734985 0 0 0
-17.89819 103.72372 -82.982002 0 0 0
-17.768417 103.38004 -83.163788 0 0 0
-17.668041 103.25058 -83.408699 0 0 0
-17.692951 103.16133 -83.181541 0 0 0
-17.64702 102.96972 -83.055199 0 0 0
-17.541237 103.05705 -83.589241 0 0 0
-17.593407 102.99923 -83.340057 0 0 0
-17.535772 102.79343 -83.218773 0 0 0
-17.470322 102.60449 -83.094841 0 0 0
-17.346512 102.39307 -83.111221 0 0 0
-17.388481 102.83246 -83.747482 0 0 0
-17.464523 102.80801 -83.49012 0 0 0
-17.401915 102.58708 -83.327675 0 0 0
-17.264202 102.37012 -83.360237 0 0 0
-17.200315 102.15974 -83.128014 0 0 0
-17.369898 102.98716 -83.970192 0 0 0
-17.237644 102.73704 -83.974831 0 0 0
-17.203104 102.53501 -83.79567 0 0 0
-17.322096 102.5831 -83.575912 0 0 0
-17.131979 102.1836 -83.402008 0 0 0
-17.211535 102.88859 -84.196327 0 0 0
-17.069145 102.64413 -84.203514 0 0 0
-17.083017 102.48872 -83.998375 0 0 0
-16.981363 102.25953 -83.867996 0 0 0
-16.987665 102.09711 -83.610306 0 0 0
-17.029472 101.98585 -83.305405 0 0 0
-17.057966 102.84566 -84.419014 0 0 0
-16.899965 102.55577 -84.386787 0 0 0
-16.907652 102.36958 -84.152771 0 0 0
-16.765593 102.12753 -84.065582 0 0 0
-16.809418 101.99409 -83.794907 0 0 0
-16.846802 101.86486 -83.50737 0 0 0
-16.902353 102.807 -84.605156 0 0 0
-16.739069 102.52021 -84.563255 0 0 0
-16.705286 102.28014 -84.348099 0 0 0
-16.543108 102.00516 -84.217682 0 0 0
-16.589079 101.87031 -83.963181 0 0 0
-16.644371 101.74261 -83.678787 0 0 0
-16.745064 102.74811 -84.754311 0 0 0
-16.571928 102.559 -84.777321 0 0 0
-16.535103 102.34401 -84.603149 0 0 0
-16.462486 102.13945 -84.456619 0 0 0
-16.302109 101.91926 -84.346924 0 0 0
-16.322857 101.75561 -84.108833 0 0 0
-16.603428 102.80363 -84.94709 0 0 0
-16.412508 102.63216 -84.96862 0 0 0
-16.337061 102.43458 -84.825096 0 0 0
-16.264774 102.23904 -84.683426 0 0 0
-16.206312 102.0561 -84.556801 0 0 0
-16.366922 102.80061 -85.147476 0 0 0
-16.179064 102.57879 -85.031189 0 0 0
-16.070721 102.36941 -84.858932 0 0 0
-15.98042 102.11254 -84.705963 0 0 0
-16.031849 101.87463 -84.522507 0 0 0
-16.065434 102.72709 -85.209442 0 0 0
-15.890049 102.56182 -85.034393 0 0 0
-15.825551 102.29727 -84.864365 0 0 0
-15.933434 102.86961 -85.413841 0 0 0
-15.777699 102.74194 -85.274918 0 0 0
-15.598233 102.60752 -85.145782 0 0 0
-15.653302 102.44036 -84.98024 0 0 0
-15.652423 102.90346 -85.515434 0 0 0
-15.502995 102.74531 -85.372513 0 0 0
-15.350034 102.53742 -85.284889 0 0 0
-15.362237 102.85995 -85.579636 0 0 0
-14.976974 100.76956 -83.541168 0 0 0
-15.236753 100.89436 -83.572884 0 0 0
-15.487844 101.0209 -83.643654 0 0 0
-15.724375 101.17155 -83.758575 0 0 0
-15.886218 101.37109 -83.989067 0 0 0
-14.839602 100.75076 -83.350571 0 0 0
-15.11359 100.88026 -83.337837 0 0 0
-15.387896 100.96199 -83.357742 0 0 0
-15.654842 101.0423 -83.423439 0 0 0
-15.91125 101.16688 -83.551109 0 0 0
-16.002771 101.32154 -83.764648 0 0 0
-14.983352 100.85472 -83.133568 0 0 0
-15.746868 101.00963 -83.100594 0 0 0
-15.87249 101.07094 -83.312553 0 0 0
-15.931853 101.01734 -82.836166 0 0 0
-16.015409 101.06463 -83.080925 0 0 0
-16.113911 101.16448 -83.346405 0 0 0
-16.208431 101.30817 -83.55014 0 0 0
-16.241774 101.1534 -83.124413 0 0 0
-16.365042 101.30458 -83.325569 0 0 0
-16.475796 101.50388 -83.540451 0 0 0
-16.269279 101.46054 -83.730927 0 0 0
-16.157789 101.53374 -83.95388 0 0 0
-16.56628 101.43347 -83.232826 0 0 0
-16.70018 101.63885 -83.392769 0 0 0
-16.423487 101.64991 -83.839668 0 0 0
-16.023495 101.57706 -84.18293 0 0 0
-16.898739 101.77682 -83.204918 0 0 0
-17.063677 101.92162 -82.996391 0 0 0
-16.110126 101.74129 -84.319321 0 0 0
-11.649935 108.86344 -80.310631 0 0 0
-11.511026 108.87823 -80.493835 0 0 0
-11.492687 108.95656 -80.725914 0 0 0
-11.34796 108.94796 -80.900276 0 0 0
-11.423493 109.06316 -81.17466 0 0 0
-11.252088 108.71356 -80.398186 0 0 0
-11.282426 108.82652 -80.633316 0 0 0
-11.104024 108.79706 -80.806274 0 0 0
-11.196766 108.97631 -81.250961 0 0 0
-11.247586 109.03977 -81.437393 0 0 0
-11.021495 108.54411 -80.332878 0 0 0
-11.039728 108.66801 -80.571114 0 0 0
-10.865091 108.64504 -80.779694 0 0 0
-10.937103 108.76709 -80.997894 0 0 0
-10.813205 108.76148 -81.24984 0 0 0
-10.990999 108.89723 -81.415054 0 0 0
-10.800947 108.49842 -80.542839 0 0 0
-10.645109 108.51063 -80.831993 0 0 0
-10.713533 108.63501 -81.044319 0 0 0
-10.596935 108.63018 -81.318871 0 0 0
-10.763793 108.78191 -81.511414 0 0 0
-10.990926 108.93204 -81.651108 0 0 0
-10.487483 108.49237 -81.108887 0 0 0
-10.361904 108.47469 -81.384659 0 0 0
-10.517716 108.62911 -81.586868 0 0 0
-10.717405 108.78542 -81.762848 0 0 0
-10.266121 108.44842 -81.663391 0 0 0
-10.47349 108.62303 -81.85466 0 0 0
-10.684196 108.77422 -82.044235 0 0 0
-10.900622 108.9089 -82.236671 0 0 0
-11.107578 109.03163 -82.107162 0 0 0
-10.243014 108.44516 -81.932999 0 0 0
-10.469981 108.62404 -82.14296 0 0 0
-10.687331 108.77467 -82.332939 0 0 0
-10.920584 108.91025 -82.542976 0 0 0
-11.134065 109.04256 -82.379951 0 0 0
-10.058472 108.27748 -82.057289 0 0 0
-10.275778 108.47292 -82.221489 0 0 0
-10.479331 108.61697 -82.459724 0 0 0
-10.693531 108.76444 -82.58757 0 0 0
-9.9167242 108.1325 -82.273514 0 0 0
-10.108397 108.3143 -82.344841 0 0 0
-10.284966 108.46452 -82.478676 0 0 0
-10.361322 108.50077 -82.725212 0 0 0
-10.57505 108.65009 -82.787872 0 0 0
-10.822681 108.81284 -82.827614 0 0 0
-9.7407665 107.93295 -82.278854 0 0 0
-9.8441372 108.02238 -82.574066 0 0 0
-9.9941921 108.19176 -82.5271 0 0 0
-10.156773 108.33177 -82.650177 0 0 0
-10.204127 108.32912 -82.917053 0 0 0
-10.430333 108.49947 -82.997917 0 0 0
-9.5846033 107.72842 -82.344383 0 0 0
-9.7006578 107.84996 -82.607704 0 0 0
-9.8189821 107.93756 -82.89299 0 0 0
-9.9886723 108.15332 -82.789703 0 0 0
-10.258294 108.30636 -83.191109 0 0 0
-10.491714 108.48237 -83.242943 0 0 0
-9.4296036 107.49326 -82.517593 0 0 0
-9.5587988 107.66027 -82.632957 0 0 0
-9.6378059 107.71858 -82.880394 0 0 0
-9.7139616 107.74324 -83.138474 0 0 0
-9.8800755 107.92966 -83.19043 0 0 0
-10.06801 108.10543 -83.26413 0 0 0
-9.4641018 107.49296 -82.821449 0 0 0
-9.5398932 107.52477 -83.090553 0 0 0
-9.6199188 107.5457 -83.37114 0 0 0
-9.7930584 107.74045 -83.42791 0 0 0
-9.9785738 107.94163 -83.461731 0 0 0
-10.186957 108.15127 -83.455338 0 0 0
-9.4436979 107.3271 -83.279945 0 0 0
-9.9147224 107.76973 -83.676956 0 0 0
-10.113563 107.97918 -83.686424 0 0 0
-10.309566 108.16753 -83.682816 0 0 0
-10.2648 108.01843 -83.915184 0 0 0
-10.446234 108.18824 -83.908058 0 0 0
-10.523178 108.32642 -83.736649 0 0 0
-10.383046 108.32224 -83.458824 0 0 0
-10.079165 107.83034 -83.91288 0 0 0
-10.268103 107.88496 -84.139305 0 0 0
-10.467496 108.08001 -84.122955 0 0 0
-10.651447 108.29121 -84.023552 0 0 0
-10.733566 108.45639 -83.79258 0 0 0
-10.593388 108.46307 -83.525444 0 0 0
-9.8937073 107.626 -83.904175 0 0 0
-10.078938 107.68378 -84.135262 0 0 0
-10.269282 107.73759 -84.348503 0 0 0
-10.479712 107.93755 -84.355354 0 0 0
-10.660853 108.1303 -84.307312 0 0 0
-10.881118 108.2058 -84.457779 0 0 0
-10.83293 108.31512 -84.224586 0 0 0
-10.897157 108.46049 -84.02919 0 0 0
-10.948115 108.07125 -84.69558 0 0 0
-11.110009 108.27519 -84.567085 0 0 0
-11.07026 108.42875 -84.282028 0 0 0
-11.130942 108.6124 -83.99955 0 0 0
-10.958032 108.60196 -83.788033 0 0 0
-11.004718 108.7282 -83.532051 0 0 0
-11.204692 108.12418 -84.840637 0 0 0
-11.332487 108.32263 -84.684769 0 0 0
-11.305206 108.45629 -84.46508 0 0 0
-11.293056 108.60486 -84.196465 0 0 0
-11.36804 108.77875 -83.906364 0 0 0
-11.171411 108.76 -83.703003 0 0 0
-11.401931 108.06049 -85.045479 0 0 0
-11.470572 108.26405 -84.856438 0 0 0
-11.586607 108.45638 -84.668373 0 0 0
-11.673692 108.70415 -84.34124 0 0 0
-11.501632 108.73057 -84.144127 0 0 0
-11.614474 108.19035 -85.036568 0 0 0
-11.741618 108.35985 -84.900963 0 0 0
-12.017005 108.69968 -84.55024 0 0 0
-11.900723 108.78131 -84.346298 0 0 0
-11.738754 108.8208 -84.167755 0 0 0
-12.139383 108.86226 -84.330925 0 0 0
-12.208229 108.98423 -84.125023 0 0 0
-12.043308 109.03118 -83.921318 0 0 0
-11.825425 109.00888 -83.8162 0 0 0
-11.643983 108.8759 -83.96611 0 0 0
-12.423039 109.06031 -84.065247 0 0 0
-12.247318 109.11412 -83.858307 0 0 0
-12.027885 109.12228 -83.673691 0 0 0
-11.792974 109.09811 -83.533669 0 0 0
-11.579725 108.94561 -83.732445 0 0 0
-11.346222 108.88969 -83.591919 0 0 0
-12.61589 109.1385 -83.970169 0 0 0
-12.469864 109.1881 -83.778786 0 0 0
-12.281075 109.21248 -83.596298 0 0 0
-12.034914 109.2108 -83.425514 0 0 0
-12.722457 109.23454 -83.771164 0 0 0
-12.564333 109.28524 -83.534645 0 0 0
-12.300338 109.29115 -83.356171 0 0 0
-12.053897 109.28648 -83.158653 0 0 0
-11.808569 109.19555 -83.22654 0 0 0
-12.086603 109.35149 -82.900871 0 0 0
-11.822843 109.26436 -82.944321 0 0 0
-11.544962 109.14529 -83.039009 0 0 0
-11.620135 109.10735 -83.301537 0 0 0
-11.545226 109.01329 -83.503746 0 0 0
-11.623926 109.22916 -82.746063 0 0 0
-11.358464 109.10896 -82.81665 0 0 0
-11.248819 108.99606 -83.072128 0 0 0
-11.384013 109.00492 -83.289024 0 0 0
-11.149137 108.86731 -83.352814 0 0 0
-11.703429 109.28912 -82.470932 0 0 0
-11.412462 109.17002 -82.521866 0 0 0
-11.173184 109.05127 -82.618439 0 0 0
-11.070941 108.96301 -82.832802 0 0 0
-10.975455 108.85146 -83.078568 0 0 0
-11.761403 109.31614 -82.156593 0 0 0
-11.541114 109.24001 -82.294571 0 0 0
-11.328768 109.15102 -82.22377 0 0 0
-11.530186 109.23491 -82.026833 0 0 0
-11.314612 109.13567 -81.933434 0 0 0
-11.505797 109.20166 -81.740211 0 0 0
-11.284072 109.09363 -81.652168 0 0 0
-10.690613 108.59871 -83.317535 0 0 0
-10.991004 103.72292 -86.218071 0 0 0
-10.806952 103.925 -86.108063 0 0 0
-10.78924 103.66859 -86.073357 0 0 0
-10.928857 103.43874 -86.108505 0 0 0
-10.490096 104.38574 -85.905418 0 0 0
-10.595629 103.78512 -85.938377 0 0 0
-10.684828 103.47096 -85.94902 0 0 0
-10.581993 103.28549 -85.802666 0 0 0
-10.465264 103.08291 -85.611282 0 0 0
-10.47991 104.68402 -85.899704 0 0 0
-10.286623 104.52441 -85.747154 0 0 0
-10.160408 104.30664 -85.619942 0 0 0
-10.194918 103.99881 -85.6092 0 0 0
-10.453444 103.59039 -85.776299 0 0 0
-10.35459 103.3952 -85.628311 0 0 0
-10.072939 104.59451 -85.561653 0 0 0
-9.9778109 104.40517 -85.458145 0 0 0
-10.022066 103.88255 -85.414101 0 0 0
-10.224684 103.68929 -85.576981 0 0 0
-10.163292 103.4218 -85.43074 0 0 0
-10.290603 103.17142 -85.471008 0 0 0
-9.8602171 104.62248 -85.351357 0 0 0
-9.8165226 104.35819 -85.281235 0 0 0
-9.8270893 104.08508 -85.245277 0 0 0
-9.8348074 103.82203 -85.187042 0 0 0
-9.675931 104.59668 -85.137123 0 0 0
-9.6579418 104.3079 -85.087738 0 0 0
-9.659338 104.02352 -85.038086 0 0 0
-9.6686926 103.75685 -84.95414 0 0 0
-9.9950495 103.36929 -85.204781 0 0 0
-9.5154438 104.23565 -84.881905 0 0 0
-9.5177832 103.94932 -84.812057 0 0 0
-9.5226727 103.68508 -84.710434 0 0 0
-9.6745586 103.49887 -84.846733 0 0 0
-9.3887424 104.13987 -84.668999 0 0 0
-9.3838949 103.86631 -84.563576 0 0 0
-9.3890038 103.62528 -84.454086 0 0 0
-9.5383177 103.42897 -84.596802 0 0 0
-9.6882925 103.24055 -84.727287 0 0 0
-9.8322363 103.3134 -84.969955 0 0 0
-9.2803106 104.04 -84.446762 0 0 0
-9.0955982 103.96765 -84.045448 0 0 0
-9.1568346 103.71137 -84.033012 0 0 0
-9.2912951 103.5593 -84.215576 0 0 0
-9.4276314 103.36048 -84.344421 0 0 0
-9.571866 103.17023 -84.475708 0 0 0
-8.9744673 104.08739 -83.811104 0 0 0
-9.0367317 103.80946 -83.804916 0 0 0
-9.2181101 103.46625 -83.984703 0 0 0
-9.3310032 103.28672 -84.082237 0 0 0
-9.6237583 102.92439 -84.35437 0 0 0
-9.7373133 102.98061 -84.606201 0 0 0
-8.8780165 104.2011 -83.568741 0 0 0
-8.9294329 103.9179 -83.576149 0 0 0
-9.0130911 103.62517 -83.573723 0 0 0
-9.0033855 103.44038 -83.353996 0 0 0
-9.2287703 103.25599 -83.797653 0 0 0
-8.7948027 104.31543 -83.317032 0 0 0
-8.8407526 104.04018 -83.325272 0 0 0
-8.9126587 103.74565 -83.354645 0 0 0
-8.7624416 104.15224 -83.054878 0 0 0
-8.8294134 103.87132 -83.117661 0 0 0
-8.9133883 103.57571 -83.141212 0 0 0
-9.0085545 103.29003 -83.112915 0 0 0
-9.1172266 103.14745 -83.322647 0 0 0
-9.250555 103.0324 -83.587059 0 0 0
-8.719243 104.1142 -82.748001 0 0 0
-8.7762709 103.89846 -82.845581 0 0 0
-8.8429499 103.68512 -82.921326 0 0 0
-8.91049 103.45602 -82.885986 0 0 0
-8.9969854 103.21108 -82.873535 0 0 0
-9.2229729 102.90051 -83.275322 0 0 0
-8.6911793 104.14098 -82.441704 0 0 0
-8.7437658 103.88387 -82.569054 0 0 0
-8.8291712 103.62139 -82.658264 0 0 0
-8.9259157 103.32902 -82.64402 0 0 0
-8.674098 104.31964 -82.195473 0 0 0
-8.7015963 104.09634 -82.191162 0 0 0
-8.7284021 103.90151 -82.299622 0 0 0
-8.7943134 103.67028 -82.382263 0 0 0
-8.8720112 103.4296 -82.423363 0 0 0
-8.6905222 104.40977 -81.972458 0 0 0
-8.7390966 103.94492 -82.001762 0 0 0
-8.7819471 103.71166 -82.099617 0 0 0
-8.8485937 103.48766 -82.143044 0 0 0
-8.9306374 103.26592 -82.193436 0 0 0
-8.9817429 103.1539 -82.403137 0 0 0
-8.7823219 103.78469 -81.846756 0 0 0
-8.8432302 103.53733 -81.857536 0 0 0
-8.9221859 103.29084 -81.923523 0 0 0
-9.0251598 103.03934 -82.104095 0 0 0
-9.0963964 102.91026 -82.393135 0 0 0
-9.0436268 103.05698 -82.672417 0 0 0
-8.8407679 103.70509 -81.629395 0 0 0
-8.9202166 103.39252 -81.618683 0 0 0
-9.0027142 103.09982 -81.76506 0 0 0
-9.1062098 102.88223 -81.893387 0 0 0
-9.1732073 102.75676 -82.138962 0 0 0
-9.1515627 102.83405 -82.694763 0 0 0
-8.9084291 103.64597 -81.391129 0 0 0
-8.9865246 103.38952 -81.323608 0 0 0
-9.0265245 103.13956 -81.493599 0 0 0
-9.1397514 102.84515 -81.606407 0 0 0
-9.2322435 102.65801 -81.863052 0 0 0
-8.9228001 104.14291 -80.96833 0 0 0
-8.9972849 103.86512 -80.915924 0 0 0
-8.9955835 103.63295 -81.123161 0 0 0
-9.0846777 103.37778 -81.046501 0 0 0
-9.0910168 103.14494 -81.203209 0 0 0
-9.1393003 102.93195 -81.353882 0 0 0
-8.9701824 104.33077 -80.733994 0 0 0
-9.0257616 104.06046 -80.706558 0 0 0
-9.1071997 103.80489 -80.650513 0 0 0
-9.2904186 103.33611 -80.557129 0 0 0
-9.1838474 103.11694 -80.942284 0 0 0
-9.2253494 102.87127 -81.096596 0 0 0
-9.0871239 104.23721 -80.495117 0 0 0
-9.1576214 103.98071 -80.440437 0 0 0
-9.2423229 103.73258 -80.387115 0 0 0
-9.3342848 103.4723 -80.355965 0 0 0
-9.4182062 103.18993 -80.391655 0 0 0
-9.2943459 103.1212 -80.678886 0 0 0
-9.149148 104.41244 -80.303452 0 0 0
-9.2706814 104.35319 -80.064323 0 0 0
-9.3537416 104.08947 -79.999199 0 0 0
-9.304472 103.90025 -80.173851 0 0 0
