ply
format ascii 1.0
comment PCL generated
element vertex 1256
property float x
property float y
property float z
property uchar red
property uchar green
property uchar blue
element camera 0
property float view_px
property float view_py
property float view_pz
property float x_axisx
property float x_axisy
property float x_axisz
property float y_axisx
property float y_axisy
property float y_axisz
property float z_axisx
property float z_axisy
property float z_axisz
property float focal
property float scalex
property float scaley
property float centerx
property float centery
property int viewportx
property int viewporty
property float k1
property float k2
end_header
-15.274982 -39.781219 86.887184 0 0 0
-15.376771 -39.922249 87.044159 0 0 0
-15.464734 -39.948132 87.252083 0 0 0
-15.476583 -39.726967 87.449234 0 0 0
-14.966771 -39.48476 86.544067 0 0 0
-15.018309 -39.763428 86.483383 0 0 0
-15.159894 -39.921822 86.624855 0 0 0
-15.300775 -40.055019 86.820251 0 0 0
-15.328677 -40.29718 86.788666 0 0 0
-15.43755 -40.425766 86.969559 0 0 0
-15.533931 -40.462906 87.190636 0 0 0
-15.539839 -40.238701 87.312706 0 0 0
-15.010949 -40.058754 86.376244 0 0 0
-15.184154 -40.180706 86.570251 0 0 0
-15.226686 -40.446751 86.567863 0 0 0
-15.364878 -40.568676 86.780731 0 0 0
-15.48512 -40.674721 87.021248 0 0 0
-15.581258 -40.751629 87.259926 0 0 0
-15.623328 -40.533276 87.444542 0 0 0
-15.058536 -40.346035 86.353645 0 0 0
-15.130025 -40.609592 86.376152 0 0 0
-15.28322 -40.720451 86.595093 0 0 0
-15.407373 -40.830631 86.82782 0 0 0
-15.519281 -40.941509 87.06942 0 0 0
-15.604797 -41.064049 87.298775 0 0 0
-15.657966 -40.854912 87.479965 0 0 0
-15.189675 -40.899189 86.428764 0 0 0
-15.314584 -40.991985 86.640884 0 0 0
-15.431045 -41.086784 86.876411 0 0 0
-15.526304 -41.237637 87.112267 0 0 0
-15.593384 -41.38324 87.337219 0 0 0
-15.666884 -41.192135 87.522903 0 0 0
-15.056176 -40.79705 86.240303 0 0 0
-15.067896 -41.084335 86.254822 0 0 0
-15.207452 -41.176155 86.460098 0 0 0
-15.334096 -41.250393 86.686806 0 0 0
-15.440757 -41.336239 86.922798 0 0 0
-15.484139 -41.541893 87.087646 0 0 0
-14.901516 -40.903603 86.109924 0 0 0
-14.898439 -41.245037 86.120071 0 0 0
-15.072629 -41.377033 86.286697 0 0 0
-15.228072 -41.429806 86.52153 0 0 0
-15.366643 -41.50071 86.795288 0 0 0
-14.710721 -41.046452 85.988937 0 0 0
-14.700034 -41.338459 86.00135 0 0 0
-14.893198 -41.580467 86.154678 0 0 0
-15.107391 -41.642872 86.382332 0 0 0
-15.25738 -41.657478 86.618317 0 0 0
-15.363177 -41.738823 86.855637 0 0 0
-14.738067 -40.72171 86.001869 0 0 0
-14.534426 -40.872387 85.920616 0 0 0
-14.435969 -41.113567 85.896057 0 0 0
-14.232038 -41.298203 85.830055 0 0 0
-14.642733 -41.618557 86.013321 0 0 0
-14.764595 -41.882957 86.10952 0 0 0
-15.010858 -41.852371 86.298485 0 0 0
-15.200647 -41.888958 86.58239 0 0 0
-15.326266 -41.972324 86.861313 0 0 0
-15.453989 -41.823097 87.115105 0 0 0
-14.06619 -41.51223 85.789406 0 0 0
-14.189666 -41.761753 85.866425 0 0 0
-14.485063 -41.825119 85.98243 0 0 0
-14.550916 -42.098801 86.062256 0 0 0
-14.733523 -42.231289 86.179497 0 0 0
-14.90954 -42.080238 86.26339 0 0 0
-15.074393 -42.119755 86.47052 0 0 0
-13.905982 -41.733658 85.746635 0 0 0
-13.906969 -42.17231 85.831551 0 0 0
-14.359133 -42.242599 86.029495 0 0 0
-13.773295 -41.986416 85.734566 0 0 0
-13.709265 -42.30452 85.763741 0 0 0
-13.788249 -42.569176 85.868286 0 0 0
-14.052178 -42.618443 86.004753 0 0 0
-14.314536 -42.66774 86.114075 0 0 0
-14.510573 -42.428402 86.135323 0 0 0
-13.55636 -42.069782 85.640572 0 0 0
-13.47808 -42.348858 85.648567 0 0 0
-13.545932 -42.568001 85.743446 0 0 0
-13.6614 -42.821186 85.87439 0 0 0
-14.094489 -42.866081 86.102036 0 0 0
-14.34385 -42.934097 86.222084 0 0 0
-14.546083 -42.718063 86.233727 0 0 0
-14.741975 -42.524742 86.284607 0 0 0
-14.919785 -42.346966 86.383263 0 0 0
-13.838408 -43.025928 86.035645 0 0 0
-14.121433 -43.092838 86.200562 0 0 0
-14.382718 -43.198063 86.353966 0 0 0
-14.565595 -42.994129 86.358765 0 0 0
-14.75745 -42.784225 86.409607 0 0 0
-14.930498 -42.612064 86.522034 0 0 0
-13.560032 -43.064472 85.900925 0 0 0
-13.715178 -43.273838 86.087784 0 0 0
-13.844007 -43.503853 86.266685 0 0 0
-14.293527 -43.414368 86.419495 0 0 0
-14.511782 -43.414349 86.568459 0 0 0
-14.632807 -43.226906 86.555878 0 0 0
-14.756655 -43.018349 86.534607 0 0 0
-13.529348 -43.33165 85.991943 0 0 0
-13.597158 -43.548729 86.133568 0 0 0
-13.659071 -43.724369 86.281944 0 0 0
-13.897001 -43.756172 86.439644 0 0 0
-14.072957 -43.564934 86.396904 0 0 0
-14.32874 -43.605999 86.553757 0 0 0
-14.517811 -43.623356 86.747505 0 0 0
-14.70892 -43.414028 86.817184 0 0 0
-14.828266 -43.154385 86.758812 0 0 0
-13.713428 -43.903461 86.438309 0 0 0
-13.85417 -44.022884 86.60067 0 0 0
-14.064455 -43.944244 86.637047 0 0 0
-14.127263 -43.74823 86.529816 0 0 0
-14.300719 -43.816299 86.696968 0 0 0
-14.447371 -43.86237 86.878944 0 0 0
-14.641639 -43.665092 86.981758 0 0 0
-13.622234 -44.108604 86.545586 0 0 0
-13.765391 -44.244381 86.747528 0 0 0
-13.992285 -44.179695 86.797485 0 0 0
-14.224728 -44.044559 86.831444 0 0 0
-13.514929 -44.304607 86.672714 0 0 0
-13.646626 -44.417881 86.858139 0 0 0
-13.88033 -44.4151 86.970741 0 0 0
-14.137691 -44.267597 86.997925 0 0 0
-14.359999 -44.083832 87.040962 0 0 0
-13.409677 -44.515625 86.837555 0 0 0
-13.597594 -44.582729 87.026131 0 0 0
-13.822498 -44.614712 87.190826 0 0 0
-14.06838 -44.456329 87.190735 0 0 0
-14.293416 -44.265968 87.225426 0 0 0
-12.447224 -39.904671 93.06263 0 0 0
-12.716093 -40.004482 92.991951 0 0 0
-12.960829 -40.126457 92.914902 0 0 0
-12.982057 -40.421032 92.955177 0 0 0
-12.601212 -39.738274 92.966957 0 0 0
-12.885425 -39.847832 92.887367 0 0 0
-13.146911 -39.950817 92.778717 0 0 0
-13.196597 -40.230335 92.808823 0 0 0
-13.205905 -40.534782 92.84687 0 0 0
-12.78401 -39.591461 92.850395 0 0 0
-12.93532 -39.414261 92.718163 0 0 0
-13.158687 -39.478638 92.632774 0 0 0
-13.292526 -39.753151 92.647079 0 0 0
-13.401064 -40.032982 92.649872 0 0 0
-13.408381 -40.358082 92.707321 0 0 0
-13.224025 -39.082668 92.423393 0 0 0
-13.445498 -39.285305 92.382835 0 0 0
-13.405018 -39.524628 92.505058 0 0 0
-13.528142 -39.750839 92.49836 0 0 0
-13.791838 -40.147354 92.417709 0 0 0
-13.596962 -40.230503 92.569336 0 0 0
-13.42822 -39.036194 92.280121 0 0 0
-13.608043 -39.168472 92.22451 0 0 0
-13.637426 -39.482952 92.338478 0 0 0
-13.773564 -39.725742 92.322319 0 0 0
-13.540808 -38.875526 92.104324 0 0 0
-13.774771 -39.057125 92.038452 0 0 0
-13.775962 -39.310062 92.162277 0 0 0
-13.88921 -39.524387 92.160088 0 0 0
-14.030625 -39.754223 92.121964 0 0 0
-13.903014 -39.952209 92.286766 0 0 0
-13.554993 -38.640358 91.941246 0 0 0
-13.765738 -38.823151 91.898712 0 0 0
-13.978497 -39.030392 91.843872 0 0 0
-13.966576 -39.285881 91.989532 0 0 0
-14.124856 -39.533882 91.961967 0 0 0
-13.330564 -38.453415 91.960129 0 0 0
-13.562026 -38.413456 91.764183 0 0 0
-13.768468 -38.583241 91.728912 0 0 0
-13.978251 -38.78157 91.68586 0 0 0
-14.174813 -39.005016 91.637474 0 0 0
-14.160159 -39.270309 91.798233 0 0 0
-13.359753 -38.278851 91.802261 0 0 0
-13.513607 -38.162811 91.591705 0 0 0
-13.959949 -38.533985 91.513435 0 0 0
-14.17171 -38.749886 91.466072 0 0 0
-14.358305 -38.981796 91.41481 0 0 0
-14.348722 -39.247078 91.588997 0 0 0
-13.278937 -38.101875 91.702087 0 0 0
-13.33585 -37.936741 91.495605 0 0 0
-13.650366 -38.066555 91.379959 0 0 0
-13.911518 -38.288895 91.344086 0 0 0
-14.150699 -38.504055 91.294052 0 0 0
-14.358493 -38.725769 91.230766 0 0 0
-13.201421 -37.697182 91.338379 0 0 0
-13.881786 -38.081852 91.171684 0 0 0
-14.118369 -38.277805 91.119507 0 0 0
-14.325609 -38.477249 91.053757 0 0 0
-14.456194 -38.437515 90.835922 0 0 0
-14.530443 -38.716579 90.983208 0 0 0
-14.534662 -38.964268 91.185471 0 0 0
-14.52735 -39.22781 91.365593 0 0 0
-14.570118 -38.399914 90.60656 0 0 0
-14.633487 -38.604729 90.722717 0 0 0
-14.69817 -38.994339 90.967407 0 0 0
-14.70107 -39.227085 91.144615 0 0 0
-14.69267 -39.478962 91.306824 0 0 0
-14.514302 -39.490128 91.533325 0 0 0
-14.889898 -38.899906 90.565041 0 0 0
-14.876415 -39.058018 90.735107 0 0 0
-14.864159 -39.252262 90.915482 0 0 0
-14.855634 -39.483444 91.075058 0 0 0
-14.837164 -39.735825 91.218651 0 0 0
-14.668071 -39.740295 91.444588 0 0 0
-15.100525 -38.961132 90.176094 0 0 0
-15.025898 -39.071766 90.455826 0 0 0
-15.011852 -39.276642 90.673889 0 0 0
-15.008315 -39.497131 90.833321 0 0 0
-14.994093 -39.729828 90.984573 0 0 0
-15.017112 -38.730431 90.083412 0 0 0
-15.155286 -38.867317 89.887451 0 0 0
-15.22778 -39.082077 89.984222 0 0 0
-15.127892 -39.302849 90.458488 0 0 0
-15.148583 -39.521309 90.577278 0 0 0
-15.133963 -39.730885 90.719994 0 0 0
-15.064798 -38.668777 89.836563 0 0 0
-15.178719 -38.755508 89.601532 0 0 0
-15.278067 -39.002449 89.70649 0 0 0
-15.350992 -39.237434 89.806458 0 0 0
-15.346407 -39.501774 90.112129 0 0 0
-15.274343 -39.748711 90.436798 0 0 0
-15.235035 -38.746292 89.318985 0 0 0
-15.317812 -38.966965 89.445984 0 0 0
-15.395693 -39.213558 89.563927 0 0 0
-15.465256 -39.482994 89.690994 0 0 0
-15.390559 -39.420532 89.899155 0 0 0
-15.269581 -38.746456 89.042023 0 0 0
-15.360353 -38.971619 89.166641 0 0 0
-15.432666 -39.189129 89.29216 0 0 0
-15.492941 -39.421177 89.446198 0 0 0
-15.291265 -38.748798 88.75705 0 0 0
-15.378415 -38.953487 88.896057 0 0 0
-15.472331 -39.206882 89.002022 0 0 0
-15.53021 -39.410316 89.17733 0 0 0
-15.575619 -39.618828 89.335732 0 0 0
-15.5582 -39.702896 89.546104 0 0 0
-15.37452 -38.931648 88.57415 0 0 0
-15.451173 -39.118164 88.744438 0 0 0
-15.574879 -39.482124 88.935974 0 0 0
-15.623935 -39.682316 89.133781 0 0 0
-15.687865 -39.950191 89.143089 0 0 0
-15.466928 -39.153698 88.475868 0 0 0
-15.560332 -39.420647 88.453743 0 0 0
-15.61923 -39.583771 88.68129 0 0 0
-15.657648 -39.754639 88.902534 0 0 0
-15.483284 -39.242626 88.238792 0 0 0
-15.577211 -39.535988 88.203064 0 0 0
-15.641712 -39.689571 88.427666 0 0 0
-15.686033 -39.849731 88.655525 0 0 0
-15.716543 -40.010719 88.882187 0 0 0
-15.507447 -39.400871 87.986053 0 0 0
-15.581797 -39.666351 87.940575 0 0 0
-15.655454 -39.809582 88.179077 0 0 0
-15.703489 -39.962299 88.41185 0 0 0
-15.742635 -40.116817 88.64695 0 0 0
-15.725878 -40.169788 89.113068 0 0 0
-15.431352 -39.274906 87.817017 0 0 0
-15.492 -39.5312 87.693047 0 0 0
-15.567218 -39.811985 87.704117 0 0 0
-15.648078 -39.945549 87.941513 0 0 0
-15.707722 -40.088257 88.17215 0 0 0
-15.749929 -40.232426 88.407867 0 0 0
-15.55221 -39.998001 87.489296 0 0 0
-15.635738 -40.097031 87.724228 0 0 0
-15.698021 -40.231651 87.939072 0 0 0
-15.749089 -40.361279 88.166397 0 0 0
-15.784145 -40.492905 88.407593 0 0 0
-15.61058 -40.264874 87.527206 0 0 0
-15.676492 -40.397079 87.702278 0 0 0
-15.728705 -40.510376 87.925621 0 0 0
-15.773588 -40.624439 88.161613 0 0 0
-15.804798 -40.744606 88.403534 0 0 0
-15.80658 -40.627167 88.658142 0 0 0
-15.697743 -40.670544 87.681908 0 0 0
-15.790136 -40.878021 88.16256 0 0 0
-15.810033 -40.996773 88.394905 0 0 0
-15.817874 -40.871689 88.64093 0 0 0
-15.803248 -40.767532 88.907295 0 0 0
-15.781613 -40.522068 88.918793 0 0 0
-15.715561 -40.962288 87.702469 0 0 0
-15.759933 -41.032127 87.936218 0 0 0
-15.791643 -41.130444 88.174438 0 0 0
-15.803399 -41.259541 88.383835 0 0 0
-15.813812 -41.120899 88.607132 0 0 0
-15.716842 -41.258865 87.74131 0 0 0
-15.761928 -41.263981 87.970596 0 0 0
-15.778335 -41.395245 88.153717 0 0 0
-15.785175 -41.517056 88.371277 0 0 0
-15.801444 -41.383881 88.607849 0 0 0
-15.791586 -41.202301 89.04126 0 0 0
-15.661187 -41.523956 87.606407 0 0 0
-15.730495 -41.489033 87.87854 0 0 0
-15.752369 -41.640587 88.116241 0 0 0
-15.758925 -41.763058 88.365692 0 0 0
-15.781164 -41.6231 88.615028 0 0 0
-15.784367 -41.462276 88.872406 0 0 0
-15.570711 -41.65596 87.363327 0 0 0
-15.695408 -41.735828 87.850105 0 0 0
-15.71715 -41.891201 88.126785 0 0 0
-15.719085 -42.019203 88.387466 0 0 0
-15.745872 -41.875885 88.611008 0 0 0
-15.757031 -41.745079 88.832916 0 0 0
-15.46966 -42.050449 87.276176 0 0 0
-15.570042 -42.17979 87.730804 0 0 0
-15.654871 -42.012691 87.908226 0 0 0
-15.664197 -42.160328 88.194931 0 0 0
-15.651759 -42.287949 88.484955 0 0 0
-15.699856 -42.126064 88.634865 0 0 0
-15.387907 -42.115887 87.09597 0 0 0
-15.421466 -42.307117 87.328613 0 0 0
-15.522017 -42.432457 87.822586 0 0 0
-15.598153 -42.292816 88.007309 0 0 0
-15.501202 -42.705734 88.330185 0 0 0
-15.285792 -42.21973 86.91301 0 0 0
-15.310138 -42.395409 87.103409 0 0 0
-15.339342 -42.560848 87.328346 0 0 0
-15.339728 -42.730034 87.548065 0 0 0
-15.433823 -42.662903 87.798874 0 0 0
-15.514893 -42.571999 88.063858 0 0 0
-15.191906 -42.165653 86.693687 0 0 0
-15.186958 -42.443832 86.849388 0 0 0
-15.210251 -42.62994 87.059959 0 0 0
-15.223348 -42.822746 87.292938 0 0 0
-15.214123 -42.991257 87.508041 0 0 0
-15.326138 -42.914612 87.786621 0 0 0
-15.071611 -42.413216 86.614082 0 0 0
-15.066919 -42.69006 86.793419 0 0 0
-14.998641 -42.994362 86.911926 0 0 0
-15.07649 -43.07954 87.218781 0 0 0
-14.956484 -43.338715 87.266136 0 0 0
-15.202537 -43.15316 87.769897 0 0 0
-14.916294 -42.870178 86.658241 0 0 0
-14.900381 -43.25544 87.010101 0 0 0
-14.792973 -43.513439 87.109482 0 0 0
-14.689626 -43.780109 87.274025 0 0 0
-14.979466 -43.430103 87.514496 0 0 0
-15.071978 -43.384708 87.756241 0 0 0
-14.546833 -43.885437 87.092979 0 0 0
-14.503208 -44.039909 87.2668 0 0 0
-14.615175 -43.986324 87.488525 0 0 0
-14.769624 -43.797333 87.571442 0 0 0
-15.00765 -43.569801 87.969658 0 0 0
-15.16363 -43.333397 88.019363 0 0 0
-14.424138 -44.216717 87.454384 0 0 0
-14.67596 -43.988663 87.777641 0 0 0
-14.843224 -43.78809 87.875069 0 0 0
-14.921041 -43.7533 88.167587 0 0 0
-15.086827 -43.519142 88.254669 0 0 0
-14.223343 -44.420124 87.441307 0 0 0
-14.359014 -44.341976 87.695702 0 0 0
-14.526636 -44.20834 87.934204 0 0 0
-14.732182 -43.980549 88.045593 0 0 0
-14.806211 -43.938625 88.319984 0 0 0
-14.979248 -43.713142 88.470566 0 0 0
-14.004594 -44.599556 87.428864 0 0 0
-14.153667 -44.539288 87.68399 0 0 0
-14.299169 -44.443813 87.919937 0 0 0
-14.50451 -44.298561 88.416748 0 0 0
-14.670412 -44.127483 88.501022 0 0 0
-13.765411 -44.751427 87.429283 0 0 0
-13.93602 -44.712116 87.68412 0 0 0
-14.074498 -44.6535 87.941643 0 0 0
-14.334659 -44.463749 88.33947 0 0 0
-14.361386 -44.454376 88.591057 0 0 0
-14.53481 -44.275879 88.704956 0 0 0
-13.716549 -44.86726 87.683189 0 0 0
-13.868355 -44.824863 87.949593 0 0 0
-13.986014 -44.761917 88.228584 0 0 0
-14.167876 -44.621346 88.416199 0 0 0
-14.198625 -44.598999 88.702507 0 0 0
-14.373589 -44.436852 88.872589 0 0 0
-14.553885 -44.237782 88.987076 0 0 0
-14.704684 -44.082233 88.799164 0 0 0
-14.008596 -44.761761 88.53624 0 0 0
-14.038462 -44.731052 88.806633 0 0 0
-14.180993 -44.598698 88.988625 0 0 0
-14.342337 -44.43219 89.152367 0 0 0
-14.56489 -44.189121 89.235161 0 0 0
-14.750574 -44.004845 89.081665 0 0 0
-14.881688 -43.866299 88.784485 0 0 0
-14.088077 -44.643925 89.241425 0 0 0
-14.199284 -44.513931 89.423775 0 0 0
-14.394591 -44.342773 89.372986 0 0 0
-14.522207 -44.178043 89.50898 0 0 0
-14.707594 -43.987801 89.408096 0 0 0
-14.869987 -43.811275 89.282318 0 0 0
-14.931512 -43.77557 89.008644 0 0 0
-15.041902 -43.642319 88.731781 0 0 0
-14.32408 -44.346054 89.621376 0 0 0
-14.433411 -44.177547 89.805527 0 0 0
-14.708927 -43.892467 89.741447 0 0 0
-14.848042 -43.771927 89.545097 0 0 0
-15.028549 -43.551308 89.439522 0 0 0
-15.016443 -43.622581 89.20488 0 0 0
-14.132901 -44.50679 89.686775 0 0 0
-14.263914 -44.316383 89.8918 0 0 0
-14.360295 -44.136055 90.097992 0 0 0
-14.537745 -43.997005 89.972931 0 0 0
-14.652398 -43.811436 90.055717 0 0 0
-14.815568 -43.702549 89.839935 0 0 0
-14.953055 -43.58139 89.66433 0 0 0
-14.096764 -44.447006 89.950256 0 0 0
-14.156591 -44.298252 90.173164 0 0 0
-14.230372 -44.123726 90.359764 0 0 0
-14.463326 -43.929825 90.270714 0 0 0
-14.624624 -43.699196 90.310905 0 0 0
-14.79072 -43.597504 90.093628 0 0 0
-14.950058 -43.482098 89.886688 0 0 0
-13.963244 -44.47966 90.149399 0 0 0
-14.004032 -44.311069 90.419113 0 0 0
-14.088178 -44.07811 90.640411 0 0 0
-14.294789 -43.942497 90.5289 0 0 0
-14.44544 -43.759125 90.541862 0 0 0
-14.618019 -43.53083 90.536102 0 0 0
-14.782287 -43.462921 90.318687 0 0 0
-14.930676 -43.375008 90.102776 0 0 0
-13.880376 -44.233891 90.706108 0 0 0
-13.9381 -44.018944 90.915916 0 0 0
-14.217469 -43.833553 90.78553 0 0 0
-14.439594 -43.581776 90.758545 0 0 0
-14.625309 -43.33952 90.732941 0 0 0
-14.787113 -43.291752 90.511696 0 0 0
-14.935449 -43.218025 90.299423 0 0 0
-13.835466 -43.884453 91.193054 0 0 0
-14.070141 -43.788849 91.028534 0 0 0
-14.289843 -43.579048 90.967957 0 0 0
-14.465846 -43.342529 90.954903 0 0 0
-14.636841 -43.114223 90.903809 0 0 0
-14.789202 -43.109051 90.682686 0 0 0
-13.951939 -43.665417 91.277199 0 0 0
-14.158279 -43.551346 91.15464 0 0 0
-14.304017 -43.305042 91.17942 0 0 0
-14.480271 -43.090675 91.120743 0 0 0
-14.651305 -42.869152 91.047729 0 0 0
-14.798275 -42.888359 90.830437 0 0 0
-14.171171 -43.173466 91.411293 0 0 0
-14.329312 -43.019714 91.339508 0 0 0
-14.529096 -42.366341 91.493828 0 0 0
-14.691596 -42.370087 91.29818 0 0 0
-14.158903 -42.922211 91.580643 0 0 0
-14.344542 -42.518539 91.614296 0 0 0
-14.440209 -42.220394 91.658577 0 0 0
-14.649915 -42.144634 91.44973 0 0 0
-14.829373 -42.129047 91.217728 0 0 0
-14.826935 -42.40205 91.082336 0 0 0
-14.394052 -41.972454 91.794762 0 0 0
-14.574327 -41.943924 91.609886 0 0 0
-14.759733 -41.889168 91.414879 0 0 0
-14.897676 -41.852573 91.235138 0 0 0
-15.004748 -41.955063 91.033195 0 0 0
-14.961831 -42.217636 90.970482 0 0 0
-14.294006 -41.768337 91.957222 0 0 0
-14.493323 -41.72905 91.764565 0 0 0
-14.683714 -41.668762 91.571739 0 0 0
-14.862227 -41.595722 91.358971 0 0 0
-15.02575 -41.689789 91.08876 0 0 0
-13.965717 -41.580807 92.280273 0 0 0
-14.254415 -41.364956 92.067741 0 0 0
-14.381007 -41.538826 91.92186 0 0 0
-14.567167 -41.467941 91.740845 0 0 0
-14.738332 -41.388714 91.552406 0 0 0
-13.822286 -41.37434 92.422951 0 0 0
-14.05999 -41.319233 92.24102 0 0 0
-14.25264 -41.137383 92.093697 0 0 0
-14.433453 -41.278625 91.911301 0 0 0
-14.603156 -41.191822 91.73555 0 0 0
-13.664888 -41.133247 92.56176 0 0 0
-14.073484 -41.029427 92.258591 0 0 0
-14.259993 -40.871529 92.101128 0 0 0
-14.441051 -41.009502 91.923767 0 0 0
-14.615076 -40.921898 91.740326 0 0 0
-14.772588 -41.082191 91.545944 0 0 0
-13.647246 -40.823456 92.589508 0 0 0
-14.049843 -40.763309 92.277443 0 0 0
-14.230119 -40.605377 92.120331 0 0 0
-14.441189 -40.723526 91.930328 0 0 0
-14.627045 -40.693443 91.718903 0 0 0
-14.792536 -40.790241 91.523048 0 0 0
-13.623696 -40.524853 92.593727 0 0 0
-13.836204 -40.656765 92.443565 0 0 0
-14.023642 -40.494659 92.288689 0 0 0
-14.176292 -40.310356 92.131668 0 0 0
-14.358537 -40.433113 91.975517 0 0 0
-13.814084 -40.391594 92.442139 0 0 0
-13.986717 -40.218437 92.276855 0 0 0
-14.122791 -40.007618 92.111031 0 0 0
-14.303061 -40.107891 91.96891 0 0 0
-14.623826 -40.250591 91.651802 0 0 0
-14.266506 -39.800613 91.913208 0 0 0
-14.458514 -40.000092 91.772499 0 0 0
-14.647023 -39.998852 91.55677 0 0 0
-14.799095 -40.282249 91.444977 0 0 0
-14.741763 -40.512234 91.56015 0 0 0
-14.32386 -39.521126 91.759995 0 0 0
-14.47712 -39.752911 91.676849 0 0 0
-14.818167 -40.003597 91.342438 0 0 0
-14.948774 -40.280697 91.237289 0 0 0
-14.919196 -40.588417 91.339714 0 0 0
-14.969132 -39.990509 91.12043 0 0 0
-15.087899 -40.231812 91.009087 0 0 0
-15.073964 -40.511948 91.100967 0 0 0
-15.070433 -40.781898 91.135155 0 0 0
-14.928911 -40.930439 91.346054 0 0 0
-15.106438 -39.964031 90.883286 0 0 0
-15.210264 -40.188007 90.779922 0 0 0
-15.203975 -40.450642 90.858498 0 0 0
-15.203345 -40.721035 90.897469 0 0 0
-15.080688 -41.015263 91.125313 0 0 0
-15.314974 -40.157711 90.559227 0 0 0
-15.32086 -40.385929 90.620506 0 0 0
-15.322881 -40.635067 90.666451 0 0 0
-15.335693 -41.129196 90.65477 0 0 0
-15.36347 -40.014145 90.379059 0 0 0
-15.510751 -40.415405 90.172729 0 0 0
-15.422618 -40.531906 90.423454 0 0 0
-15.421585 -40.800793 90.453941 0 0 0
-15.423885 -39.922485 90.17511 0 0 0
-15.55213 -40.058899 89.873413 0 0 0
-15.581705 -40.319023 89.910088 0 0 0
-15.588308 -40.571831 89.98275 0 0 0
-15.58814 -40.845135 90.038414 0 0 0
-15.443567 -41.100513 90.400673 0 0 0
-15.444817 -39.622971 89.918938 0 0 0
-15.533252 -39.791763 89.7575 0 0 0
-15.616332 -40.001778 89.594788 0 0 0
-15.647974 -40.27108 89.637108 0 0 0
-15.661702 -40.52499 89.709763 0 0 0
-15.648299 -40.752163 89.827286 0 0 0
-15.687722 -40.192554 89.373863 0 0 0
-15.712723 -40.524563 89.438438 0 0 0
-15.702818 -40.808418 89.608383 0 0 0
-15.6517 -41.013039 89.8311 0 0 0
-15.555449 -41.111603 90.109688 0 0 0
-15.766328 -40.665226 89.181442 0 0 0
-15.789449 -40.937782 89.130119 0 0 0
-15.75838 -41.150822 89.317177 0 0 0
-15.705643 -41.140541 89.59716 0 0 0
-15.618744 -41.271931 89.893692 0 0 0
-15.506599 -41.353546 90.206337 0 0 0
-15.761286 -41.401001 89.170738 0 0 0
-15.713813 -41.398632 89.44104 0 0 0
-15.755994 -41.618729 89.038879 0 0 0
-15.67845 -41.923679 89.301193 0 0 0
-15.619122 -41.974823 89.554657 0 0 0
-15.654725 -41.454868 89.688843 0 0 0
-15.718938 -41.867439 89.063393 0 0 0
-15.667156 -42.141205 89.062759 0 0 0
-15.621876 -42.192467 89.315491 0 0 0
-15.568206 -42.225426 89.561394 0 0 0
-15.533704 -42.087425 89.805473 0 0 0
-15.599345 -41.771969 89.751793 0 0 0
-15.713978 -42.032421 88.844315 0 0 0
-15.637625 -42.326347 88.800865 0 0 0
-15.594043 -42.401215 89.089684 0 0 0
-15.538018 -42.457134 89.387718 0 0 0
-15.488852 -42.415588 89.676414 0 0 0
-15.573703 -42.541447 88.57122 0 0 0
-15.548019 -42.595535 88.855637 0 0 0
-15.502723 -42.646095 89.184135 0 0 0
-15.432158 -42.69556 89.51252 0 0 0
-15.382569 -42.611656 89.826782 0 0 0
-15.44062 -42.325008 89.93856 0 0 0
-15.471203 -42.818108 88.60495 0 0 0
-15.458742 -42.822712 88.940132 0 0 0
-15.404154 -42.879929 89.249207 0 0 0
-15.32369 -42.975056 89.495796 0 0 0
-15.313539 -42.846325 89.76252 0 0 0
-15.394706 -42.972286 88.31543 0 0 0
-15.337926 -43.131752 88.522743 0 0 0
-15.395895 -43.006645 88.755608 0 0 0
-15.354764 -43.064552 89.010597 0 0 0
-15.287834 -43.14275 89.255424 0 0 0
-15.420592 -42.827984 88.060349 0 0 0
-15.304652 -43.083126 88.042084 0 0 0
-15.252325 -43.259457 88.284096 0 0 0
-15.164292 -43.436584 88.519951 0 0 0
-15.281335 -43.242889 88.750648 0 0 0
-15.234489 -43.299614 89.019424 0 0 0
-15.168994 -43.440308 88.784126 0 0 0
-15.093511 -43.53886 88.996948 0 0 0
-15.188843 -43.262394 89.468529 0 0 0
-8.3121576 -44.249321 86.137993 0 0 0
-8.2735167 -44.380871 86.375458 0 0 0
-8.1263828 -44.201828 86.264526 0 0 0
-8.0195436 -44.222183 86.474068 0 0 0
-8.1014891 -44.385597 86.625771 0 0 0
-8.3201246 -44.519585 86.559921 0 0 0
-8.5013571 -44.69001 86.668777 0 0 0
-7.9401255 -44.035057 86.312462 0 0 0
-7.8059855 -44.029552 86.540092 0 0 0
-7.8902469 -44.221069 86.706314 0 0 0
-7.9789953 -44.389114 86.879242 0 0 0
-8.2320347 -44.556118 86.764351 0 0 0
-8.4094276 -44.742382 86.893921 0 0 0
-7.6921377 -44.023029 86.759743 0 0 0
-7.739419 -44.160969 86.932243 0 0 0
-7.8190699 -44.318626 87.104263 0 0 0
-8.0290031 -44.521 87.106873 0 0 0
-8.1691046 -44.586739 86.951256 0 0 0
-8.2565641 -44.714314 87.141006 0 0 0
-8.4943466 -44.852818 87.087524 0 0 0
-7.524271 -43.90237 86.934959 0 0 0
-7.6051674 -44.108463 87.157776 0 0 0
-7.9044442 -44.465698 87.286804 0 0 0
-8.0908689 -44.644932 87.343933 0 0 0
-7.2758589 -43.804424 87.41748 0 0 0
-7.5473495 -44.143753 87.439178 0 0 0
-7.696866 -44.355118 87.627007 0 0 0
-7.8863387 -44.56601 87.76931 0 0 0
-7.3323522 -43.683079 87.0047 0 0 0
-7.210423 -43.638733 87.250175 0 0 0
-7.112246 -43.622017 87.512428 0 0 0
-7.2137861 -43.819592 87.670128 0 0 0
-7.510519 -44.194298 87.756012 0 0 0
-7.6897273 -44.440983 88.124069 0 0 0
-7.8905268 -44.620716 88.056534 0 0 0
-8.0775118 -44.74572 87.86853 0 0 0
-7.0077863 -43.40263 87.360672 0 0 0
-6.9791026 -43.47665 87.651154 0 0 0
-7.0579357 -43.643341 87.814743 0 0 0
-7.1856732 -43.848392 87.941307 0 0 0
-7.353765 -44.067265 88.007645 0 0 0
-7.5160465 -44.255863 88.050766 0 0 0
-7.5498939 -44.324413 88.327644 0 0 0
-7.7638159 -44.531822 88.321388 0 0 0
-6.8923368 -43.432831 87.936401 0 0 0
-7.0338268 -43.668732 88.082664 0 0 0
-7.1894269 -43.905422 88.207954 0 0 0
-7.3615294 -44.115665 88.279724 0 0 0
-7.4172416 -44.18708 88.532692 0 0 0
-7.6228476 -44.405319 88.57119 0 0 0
-6.9001341 -43.490311 88.227318 0 0 0
-7.0498037 -43.726547 88.361107 0 0 0
-7.2168264 -43.950928 88.490921 0 0 0
-7.3105984 -44.060715 88.754883 0 0 0
-7.4836416 -44.258659 88.791939 0 0 0
-6.7596841 -43.248077 88.139915 0 0 0
-6.7808008 -43.316631 88.409195 0 0 0
-6.9166069 -43.541172 88.513214 0 0 0
-7.1612315 -43.877674 88.756943 0 0 0
-7.2151318 -43.910049 89.00724 0 0 0
-7.3867416 -44.113449 89.028709 0 0 0
-6.6524978 -43.083878 88.356438 0 0 0
-6.7001157 -43.1684 88.650673 0 0 0
-6.8197341 -43.3731 88.667786 0 0 0
-6.927609 -43.526199 88.83551 0 0 0
-7.0489135 -43.692013 88.955879 0 0 0
-7.1113858 -43.725155 89.213394 0 0 0
-7.3002162 -43.963379 89.253036 0 0 0
-6.5898876 -42.946453 88.607727 0 0 0
-6.6591849 -43.053097 88.902809 0 0 0
-6.8011584 -43.306503 88.921318 0 0 0
-6.9353242 -43.481949 89.158867 0 0 0
-7.0456986 -43.567101 89.437241 0 0 0
-7.2215095 -43.812141 89.455223 0 0 0
-6.5419688 -42.847492 88.328148 0 0 0
-6.4761806 -42.698734 88.569427 0 0 0
-6.5277638 -42.789989 88.812843 0 0 0
-6.5704184 -42.840996 89.029366 0 0 0
-6.6559782 -42.981846 89.182869 0 0 0
-6.7896032 -43.232811 89.163559 0 0 0
-6.8937311 -43.32629 89.458893 0 0 0
-6.4385281 -42.594822 88.324783 0 0 0
-6.3909898 -42.445023 88.561966 0 0 0
-6.4271822 -42.52412 88.801338 0 0 0
-6.4750175 -42.599529 89.035423 0 0 0
-6.5529304 -42.713406 89.259575 0 0 0
-6.6505375 -42.859333 89.441917 0 0 0
-6.7582564 -43.111366 89.376526 0 0 0
-6.360796 -42.344402 88.320618 0 0 0
-6.3219337 -42.208443 88.546219 0 0 0
-6.3486271 -42.267956 88.801483 0 0 0
-6.3940554 -42.343189 89.037636 0 0 0
-6.4621601 -42.456844 89.281044 0 0 0
-6.5592175 -42.58128 89.505325 0 0 0
-6.2966394 -42.087761 88.302788 0 0 0
-6.2786841 -41.986301 88.504143 0 0 0
-6.2870455 -42.033306 88.758217 0 0 0
-6.3181577 -42.068565 89.027206 0 0 0
-6.3879256 -42.204453 89.278313 0 0 0
-6.4777246 -42.31424 89.532295 0 0 0
-6.5886502 -42.44146 89.763046 0 0 0
-6.6693244 -42.755005 89.671333 0 0 0
-6.2355285 -41.809364 88.615219 0 0 0
-6.2538319 -41.828312 88.894211 0 0 0
-6.2774448 -41.794708 89.161781 0 0 0
-6.3319883 -41.967064 89.290939 0 0 0
-6.4025292 -42.034122 89.523293 0 0 0
-6.4954228 -42.142124 89.760078 0 0 0
-6.5961027 -42.225685 89.986771 0 0 0
-6.7053285 -42.674595 89.87159 0 0 0
-6.3302889 -41.748566 89.46376 0 0 0
-6.4189353 -41.854313 89.735748 0 0 0
-6.5169463 -41.930729 89.991623 0 0 0
-6.6215258 -42.02314 90.210495 0 0 0
-6.7122717 -42.307983 90.216591 0 0 0
-6.3608799 -41.59853 89.712807 0 0 0
-6.4480939 -41.658852 89.975212 0 0 0
-6.5508151 -41.715694 90.232048 0 0 0
-6.6778264 -41.89719 90.432137 0 0 0
-6.7533693 -42.141724 90.436516 0 0 0
-6.8251128 -42.37112 90.423813 0 0 0
-6.8235807 -42.779175 90.060631 0 0 0
-6.8124843 -42.951733 89.849258 0 0 0
-6.652925 -41.649914 90.491379 0 0 0
-6.7753153 -41.828007 90.660545 0 0 0
-6.8461347 -42.037411 90.684456 0 0 0
-6.9052081 -42.267498 90.659447 0 0 0
-6.946866 -42.519402 90.550056 0 0 0
-6.9272699 -42.844246 90.230133 0 0 0
-6.9590893 -43.075901 90.063255 0 0 0
-6.7857904 -41.647594 90.754913 0 0 0
-6.9179721 -41.87608 90.896042 0 0 0
-7.0055447 -42.145531 90.908142 0 0 0
-7.0502157 -42.430882 90.798317 0 0 0
-7.234633 -43.133484 90.550125 0 0 0
-7.062994 -43.015427 90.342499 0 0 0
-6.9096313 -41.604046 90.979675 0 0 0
-7.0177536 -41.73856 91.10672 0 0 0
-7.0841732 -41.950863 91.120438 0 0 0
-7.1832089 -42.164726 91.168503 0 0 0
-7.14009 -42.357178 90.991486 0 0 0
-7.2198291 -42.626553 90.933983 0 0 0
-7.1565704 -41.708775 91.320541 0 0 0
-7.2541618 -41.959835 91.360046 0 0 0
-7.3647332 -42.210323 91.400177 0 0 0
-7.4069581 -42.462784 91.323708 0 0 0
-7.3740187 -42.663921 91.145164 0 0 0
-7.3854985 -43.104992 90.812134 0 0 0
-7.3114572 -41.707359 91.525261 0 0 0
-7.4230828 -41.963676 91.572617 0 0 0
-7.5463696 -42.193771 91.630051 0 0 0
-7.5356722 -42.422215 91.508377 0 0 0
-7.5295649 -42.66703 91.367882 0 0 0
-7.5214443 -42.87822 91.197731 0 0 0
-7.5026817 -41.720596 91.742836 0 0 0
-7.7347159 -42.197826 91.826355 0 0 0
-7.7148104 -42.42487 91.700424 0 0 0
-7.6999855 -42.645134 91.567947 0 0 0
-7.6778464 -42.856144 91.409958 0 0 0
-7.7260466 -43.298576 91.117729 0 0 0
-7.567657 -43.316441 90.898071 0 0 0
-7.8138919 -41.972473 91.979271 0 0 0
-7.9148412 -42.208637 91.99691 0 0 0
-7.9066253 -42.431282 91.89183 0 0 0
-7.8921566 -42.650997 91.763733 0 0 0
-7.8661675 -42.853081 91.612801 0 0 0
-7.8284626 -43.039078 91.448105 0 0 0
-7.7105722 -41.720783 91.950058 0 0 0
-7.9216995 -41.771896 92.133385 0 0 0
-8.2689781 -42.20966 92.277695 0 0 0
-8.0995722 -42.357727 92.090279 0 0 0
-8.0955 -42.642796 91.954155 0 0 0
-8.0699129 -42.878185 91.798882 0 0 0
-8.0065098 -43.086407 91.599808 0 0 0
-7.9039702 -43.488804 91.16507 0 0 0
-8.5072937 -42.203518 92.448021 0 0 0
-8.4584684 -42.451401 92.322533 0 0 0
-8.2688999 -42.549683 92.14167 0 0 0
-8.2811852 -42.883991 91.976936 0 0 0
-8.2136087 -43.123814 91.768021 0 0 0
-8.1300182 -43.305801 91.552223 0 0 0
-8.7671394 -42.163139 92.616486 0 0 0
-8.7092066 -42.413422 92.497986 0 0 0
-8.6577539 -42.653587 92.367188 0 0 0
-8.442852 -42.738701 92.179466 0 0 0
-8.5086193 -43.023056 92.069534 0 0 0
-8.4197474 -43.201027 91.887367 0 0 0
-8.9920778 -42.069027 92.759758 0 0 0
-8.9650898 -42.373104 92.657455 0 0 0
-8.8946362 -42.635159 92.516617 0 0 0
-8.8455563 -42.880592 92.374863 0 0 0
-8.6344261 -42.882355 92.241585 0 0 0
-8.6561766 -43.285007 92.001137 0 0 0
-9.1979685 -42.233727 92.811966 0 0 0
-9.2044754 -42.463634 92.736435 0 0 0
-9.1323481 -42.655807 92.628502 0 0 0
-9.0832787 -42.885765 92.502357 0 0 0
-9.0065365 -43.106564 92.338486 0 0 0
-8.9068804 -43.314625 92.143272 0 0 0
-9.4623022 -42.174519 92.935028 0 0 0
-9.4299154 -42.410995 92.850975 0 0 0
-9.392827 -42.663918 92.739807 0 0 0
-9.3548861 -42.89085 92.625832 0 0 0
-9.2775536 -43.101078 92.479652 0 0 0
-9.1623497 -43.316406 92.29586 0 0 0
-9.7320318 -42.146957 93.031334 0 0 0
-9.6982155 -42.3979 92.94706 0 0 0
-9.6239834 -42.603588 92.85067 0 0 0
-9.6288805 -42.832207 92.75206 0 0 0
-9.5815325 -43.085377 92.614243 0 0 0
-9.4272022 -43.299732 92.425537 0 0 0
-10.0056 -42.094337 93.119186 0 0 0
-9.9586649 -42.371002 93.028717 0 0 0
-9.8801422 -42.660366 92.903275 0 0 0
-9.854579 -42.95853 92.763397 0 0 0
-9.8744011 -43.22797 92.629105 0 0 0
-9.6697521 -43.311649 92.509361 0 0 0
-10.147141 -41.858906 93.209648 0 0 0
-10.294167 -42.007385 93.203346 0 0 0
-10.234166 -42.297043 93.112213 0 0 0
-10.175531 -42.564121 93.008537 0 0 0
-10.106449 -42.832302 92.887733 0 0 0
-10.092707 -43.121006 92.743027 0 0 0
-10.334158 -41.669945 93.274277 0 0 0
-10.542651 -41.891586 93.259216 0 0 0
-10.48864 -42.187599 93.186707 0 0 0
-10.489554 -42.480335 93.08744 0 0 0
-10.397623 -42.731365 92.980865 0 0 0
-10.323929 -42.984737 92.86058 0 0 0
-10.590422 -41.631695 93.31324 0 0 0
-10.828788 -41.817032 93.296143 0 0 0
-10.760579 -42.067276 93.23835 0 0 0
-10.697203 -42.311966 93.166443 0 0 0
-10.838599 -42.501324 93.110344 0 0 0
-10.70821 -42.697437 93.032356 0 0 0
-10.669335 -41.432537 93.349792 0 0 0
-10.886998 -41.577213 93.340584 0 0 0
-11.118374 -41.72654 93.318634 0 0 0
-11.036287 -41.998779 93.263496 0 0 0
-10.967176 -42.263626 93.192406 0 0 0
-10.634533 -41.237293 93.3685 0 0 0
-10.905377 -41.308659 93.37365 0 0 0
-11.113726 -41.437908 93.360817 0 0 0
-11.363161 -41.527779 93.337578 0 0 0
-11.302902 -41.94733 93.264534 0 0 0
-11.230973 -42.208427 93.204681 0 0 0
-10.822108 -41.077103 93.388702 0 0 0
-11.118568 -41.141117 93.388474 0 0 0
-11.327319 -41.305653 93.367531 0 0 0
-11.607135 -41.341293 93.34034 0 0 0
-11.637115 -41.612152 93.297127 0 0 0
-11.501738 -42.121586 93.21183 0 0 0
-11.005673 -40.890171 93.397697 0 0 0
-11.263856 -40.906601 93.388893 0 0 0
-11.42643 -41.114239 93.377914 0 0 0
-11.838841 -41.494007 93.284554 0 0 0
-11.784878 -41.99424 93.197403 0 0 0
-11.681166 -42.275536 93.138031 0 0 0
-11.423868 -42.405167 93.134605 0 0 0
-11.925082 -42.152679 93.129341 0 0 0
-11.905096 -42.618996 92.983276 0 0 0
-11.640898 -42.539425 93.058403 0 0 0
-11.374811 -42.689941 93.033585 0 0 0
-11.157845 -42.477077 93.123413 0 0 0
-12.364873 -41.967705 93.064758 0 0 0
-12.39886 -42.237141 92.979721 0 0 0
-12.150009 -42.446102 92.979874 0 0 0
-12.14082 -42.729343 92.880287 0 0 0
-11.932825 -42.852688 92.882126 0 0 0
-11.663445 -42.782799 92.962852 0 0 0
-12.600368 -42.344635 92.87439 0 0 0
-12.35559 -42.527679 92.892761 0 0 0
-12.337864 -42.827156 92.783478 0 0 0
-12.115634 -43.02652 92.752113 0 0 0
-11.795911 -43.02755 92.829208 0 0 0
-11.497285 -42.966282 92.910378 0 0 0
-12.753096 -42.555519 92.736931 0 0 0
-12.530289 -42.617878 92.799614 0 0 0
-12.585388 -42.832249 92.687149 0 0 0
-12.388041 -43.063461 92.647781 0 0 0
-12.216814 -43.284374 92.583878 0 0 0
-11.922172 -43.230465 92.695374 0 0 0
-12.666592 -43.044655 92.55246 0 0 0
-12.508064 -43.264385 92.493347 0 0 0
-12.392679 -43.483475 92.392662 0 0 0
-12.150182 -43.550301 92.431351 0 0 0
-11.982052 -43.423779 92.565842 0 0 0
-11.618811 -43.216919 92.759216 0 0 0
-12.916041 -43.022888 92.449165 0 0 0
-12.794172 -43.23317 92.381363 0 0 0
-12.657403 -43.433556 92.312447 0 0 0
-12.497047 -43.890106 92.059479 0 0 0
-12.312415 -43.730602 92.250793 0 0 0
-11.991586 -44.149467 92.038971 0 0 0
-12.755702 -43.807236 92.004639 0 0 0
-12.68518 -44.055592 91.850357 0 0 0
-12.422441 -44.079693 91.94651 0 0 0
-12.216773 -43.968506 92.109848 0 0 0
-12.66542 -44.312622 91.636909 0 0 0
-12.45671 -44.272243 91.769966 0 0 0
-12.201664 -44.214321 91.925957 0 0 0
-11.960881 -44.374329 91.852066 0 0 0
-11.753081 -44.248306 92.017357 0 0 0
-12.910726 -44.33527 91.474983 0 0 0
-12.667611 -44.517719 91.419502 0 0 0
-12.399341 -44.504478 91.563095 0 0 0
-12.221332 -44.400894 91.746895 0 0 0
-12.073999 -44.562416 91.631264 0 0 0
-11.812118 -44.571541 91.700218 0 0 0
-12.93284 -44.499828 91.267052 0 0 0
-12.690332 -44.691898 91.183556 0 0 0
-12.440241 -44.687778 91.328537 0 0 0
-12.174326 -44.697521 91.44046 0 0 0
-13.210299 -44.462521 91.09861 0 0 0
-12.98572 -44.627541 91.062592 0 0 0
-12.819353 -44.766396 90.99382 0 0 0
-12.613821 -44.885937 90.941078 0 0 0
-12.432469 -44.866821 91.080994 0 0 0
-12.213213 -44.860443 91.204063 0 0 0
-13.451237 -44.442123 90.913902 0 0 0
-13.227254 -44.614941 90.877701 0 0 0
-13.023223 -44.766014 90.832069 0 0 0
-12.649438 -45.024826 90.672668 0 0 0
-12.416389 -45.041622 90.802917 0 0 0
-12.191699 -45.025543 90.957664 0 0 0
-13.795474 -44.421597 90.524788 0 0 0
-13.416995 -44.611431 90.681877 0 0 0
-13.189528 -44.775799 90.644691 0 0 0
-12.933405 -44.923801 90.622955 0 0 0
-12.785791 -45.078907 90.452782 0 0 0
-12.467264 -45.166824 90.520851 0 0 0
-13.585866 -44.606319 90.47509 0 0 0
-13.363165 -44.776024 90.442085 0 0 0
-13.09158 -44.93161 90.432686 0 0 0
-12.982784 -45.074657 90.241768 0 0 0
-12.679708 -45.206917 90.261101 0 0 0
-13.54451 -44.752556 90.225731 0 0 0
-13.273435 -44.922768 90.230873 0 0 0
-13.177191 -45.066399 90.015862 0 0 0
-12.930189 -45.188911 90.030594 0 0 0
-12.728575 -45.288132 90.006523 0 0 0
-12.513257 -45.348083 90.067223 0 0 0
-13.618831 -44.806957 89.97229 0 0 0
-13.416084 -44.927013 90.00798 0 0 0
-13.330108 -45.053837 89.766769 0 0 0
-13.098985 -45.180542 89.77433 0 0 0
-12.873346 -45.293625 89.772354 0 0 0
-12.629501 -45.390598 89.799072 0 0 0
-13.788657 -44.759773 89.754227 0 0 0
-13.560432 -44.914974 89.745102 0 0 0
-13.479458 -45.026699 89.523209 0 0 0
-13.238683 -45.173046 89.527023 0 0 0
-13.006318 -45.295803 89.524147 0 0 0
-12.768493 -45.399544 89.549248 0 0 0
-13.965024 -44.682232 89.522316 0 0 0
-13.726632 -44.86092 89.511414 0 0 0
-13.499914 -45.098354 89.095764 0 0 0
-13.368036 -45.146427 89.300003 0 0 0
-13.120226 -45.286404 89.264023 0 0 0
-12.890808 -45.398014 89.275276 0 0 0
-13.849887 -44.823265 89.26725 0 0 0
-13.946496 -44.789234 89.027733 0 0 0
-13.848816 -44.879211 88.761185 0 0 0
-13.648853 -45.024097 88.698181 0 0 0
-13.4145 -45.17944 88.617905 0 0 0
-13.20047 -45.295437 88.797897 0 0 0
-13.252745 -45.244423 89.046028 0 0 0
-13.817361 -44.905014 88.462143 0 0 0
-13.601245 -45.058857 88.420143 0 0 0
-13.372167 -45.205173 88.363571 0 0 0
-13.174481 -45.323174 88.528862 0 0 0
-12.958816 -45.42622 88.691498 0 0 0
-12.986448 -45.388565 88.987984 0 0 0
-13.758566 -44.930664 88.192245 0 0 0
-13.534545 -45.083679 88.157806 0 0 0
-13.318323 -45.218601 88.116257 0 0 0
-13.145449 -45.331234 88.244781 0 0 0
-12.94678 -45.443626 88.403664 0 0 0
-13.641438 -44.977581 87.929184 0 0 0
-13.395096 -45.126415 87.911697 0 0 0
-13.132023 -45.267982 87.942841 0 0 0
-12.938359 -45.41853 88.115555 0 0 0
-12.726517 -45.523449 88.252144 0 0 0
-12.707848 -45.543003 88.535728 0 0 0
-13.486135 -45.006893 87.695038 0 0 0
-13.222958 -45.129883 87.709846 0 0 0
-12.969232 -45.227055 87.693169 0 0 0
-12.892431 -45.356777 87.874222 0 0 0
-12.681344 -45.458553 87.95845 0 0 0
-13.517186 -44.880367 87.442436 0 0 0
-12.516196 -45.556164 88.075684 0 0 0
-13.531251 -44.749363 87.2183 0 0 0
-13.407634 -44.188984 86.453545 0 0 0
-13.50471 -43.952404 86.331001 0 0 0
-13.415895 -43.800667 86.116562 0 0 0
-13.396733 -43.566227 85.963394 0 0 0
-13.238095 -43.763123 85.886635 0 0 0
-12.735251 -45.492767 89.070221 0 0 0
-12.644928 -45.489285 89.347115 0 0 0
-12.516097 -45.48954 89.593689 0 0 0
-12.387754 -45.463554 89.842209 0 0 0
-12.724092 -45.520489 88.80394 0 0 0
-12.492 -45.600231 88.920944 0 0 0
-12.508766 -45.565716 89.170937 0 0 0
-12.372665 -45.574799 89.387833 0 0 0
-12.263328 -45.559242 89.618607 0 0 0
-12.439344 -45.641476 88.638588 0 0 0
-12.245847 -45.681698 88.868217 0 0 0
-12.282436 -45.639507 89.14666 0 0 0
-12.102779 -45.644829 89.397133 0 0 0
-11.843378 -45.666817 89.598404 0 0 0
-12.134274 -45.528908 89.875374 0 0 0
-12.486322 -45.620743 88.352722 0 0 0
-12.234783 -45.698792 88.379005 0 0 0
-12.136905 -45.730309 88.621567 0 0 0
-11.990643 -45.752708 88.85479 0 0 0
-12.055764 -45.704678 89.119797 0 0 0
-11.858828 -45.714947 89.3274 0 0 0
-11.944405 -45.76524 88.389877 0 0 0
-11.835675 -45.802998 88.626076 0 0 0
-11.740232 -45.803226 88.839882 0 0 0
-11.811767 -45.766087 89.072021 0 0 0
-11.646294 -45.822353 88.431511 0 0 0
-11.536778 -45.844231 88.700508 0 0 0
-11.619206 -45.771553 89.235741 0 0 0
-11.438943 -45.780075 88.235771 0 0 0
-11.362752 -45.851173 88.475586 0 0 0
-11.140216 -45.815277 88.297829 0 0 0
-8.7376451 -44.984531 87.066063 0 0 0
-8.8002882 -45.102592 87.297768 0 0 0
-9.0557251 -45.238426 87.396431 0 0 0
-9.2784328 -45.357018 87.555168 0 0 0
-8.5561647 -44.963203 87.292183 0 0 0
-8.6324072 -45.074417 87.514603 0 0 0
-8.8499308 -45.188736 87.506195 0 0 0
-9.0128908 -45.299419 87.645744 0 0 0
-9.1241035 -45.389416 87.833046 0 0 0
-9.3688469 -45.47295 87.808701 0 0 0
-8.3019695 -44.815746 87.372749 0 0 0
-8.4353914 -44.949844 87.521492 0 0 0
-8.4860115 -45.034817 87.756363 0 0 0
-8.7452888 -45.181774 87.704803 0 0 0
-8.8979092 -45.29335 87.898964 0 0 0
-8.2701397 -44.860737 87.675247 0 0 0
-8.2874966 -44.923344 87.93502 0 0 0
-8.4974194 -45.08744 88.016045 0 0 0
-8.7546692 -45.245354 88.105217 0 0 0
-8.9974642 -45.377304 88.144989 0 0 0
-8.1120625 -44.816792 88.135056 0 0 0
-8.3246155 -44.988243 88.186554 0 0 0
-8.5743351 -45.160091 88.248459 0 0 0
-8.8164577 -45.301884 88.35128 0 0 0
-9.2185259 -45.485786 88.277306 0 0 0
-9.2112532 -45.465359 88.031151 0 0 0
-7.9786329 -44.72578 88.327881 0 0 0
-8.1957273 -44.909023 88.422256 0 0 0
-8.4028206 -45.063507 88.387047 0 0 0
-8.6267662 -45.201168 88.48748 0 0 0
-8.8459902 -45.321598 88.64106 0 0 0
-7.8434706 -44.617855 88.524521 0 0 0
-8.0566177 -44.801128 88.609154 0 0 0
-8.234478 -44.933083 88.738518 0 0 0
-8.4446783 -45.077015 88.854965 0 0 0
-8.6111994 -45.187576 88.693832 0 0 0
-7.765151 -44.542213 88.71862 0 0 0
-7.8677893 -44.619762 88.942871 0 0 0
-8.0837202 -44.805229 88.932396 0 0 0
-7.6572514 -44.429001 88.859985 0 0 0
-7.7501626 -44.485832 89.108292 0 0 0
-7.966846 -44.672455 89.16217 0 0 0
-8.1605883 -44.819489 89.221176 0 0 0
-7.5607195 -44.299732 89.067024 0 0 0
-7.6610026 -44.35321 89.323784 0 0 0
-7.8421865 -44.532078 89.325081 0 0 0
-8.0135164 -44.653828 89.444328 0 0 0
-8.2425604 -44.827957 89.476112 0 0 0
-8.3940792 -44.971146 89.296364 0 0 0
-7.4816623 -44.170048 89.295357 0 0 0
-7.6104965 -44.231094 89.565689 0 0 0
-7.8069658 -44.436893 89.545372 0 0 0
-7.9560804 -44.51857 89.732231 0 0 0
-8.1253138 -44.686852 89.657898 0 0 0
-7.4249291 -44.042236 89.517776 0 0 0
-7.5610442 -44.090065 89.813461 0 0 0
-7.7668076 -44.309265 89.794891 0 0 0
-7.9656687 -44.415913 90.00853 0 0 0
-8.1426115 -44.610561 89.918663 0 0 0
-8.3151064 -44.804707 89.747246 0 0 0
-7.3601127 -43.9081 89.683418 0 0 0
-7.3856263 -43.847984 89.901932 0 0 0
-7.5829496 -43.988304 90.088409 0 0 0
-7.7675877 -44.201111 90.04718 0 0 0
-7.9836307 -44.307949 90.270721 0 0 0
-8.1899672 -44.523407 90.197815 0 0 0
-7.1906772 -43.687641 89.688805 0 0 0
-7.2084327 -43.596313 89.936234 0 0 0
-7.403522 -43.747612 90.134521 0 0 0
-7.6059909 -43.876404 90.341675 0 0 0
-7.7920485 -44.091343 90.31546 0 0 0
-7.0378046 -43.452301 89.708389 0 0 0
-7.0698409 -43.341423 89.988678 0 0 0
-7.242486 -43.493633 90.181084 0 0 0
-7.4342709 -43.637875 90.357727 0 0 0
-7.6327744 -43.740131 90.565971 0 0 0
-7.8225942 -43.954876 90.576492 0 0 0
-6.9174929 -43.212143 89.779366 0 0 0
-7.132185 -43.238384 90.257866 0 0 0
-7.2998366 -43.378391 90.426399 0 0 0
-7.4707403 -43.526497 90.559044 0 0 0
-6.7852197 -43.055546 89.604561 0 0 0
-7.4131956 -43.317287 90.672371 0 0 0
-7.613081 -43.542294 90.754608 0 0 0
-7.8169537 -43.773472 90.783707 0 0 0
-7.7619205 -43.534557 90.955132 0 0 0
-7.9656763 -43.744057 90.996849 0 0 0
-8.0391722 -43.992878 90.824585 0 0 0
-8.0054464 -44.162701 90.549057 0 0 0
-8.098918 -43.657692 91.229912 0 0 0
-8.1772947 -43.886845 91.097275 0 0 0
-8.3010616 -44.087418 91.009888 0 0 0
-8.2249804 -44.226089 90.747429 0 0 0
-8.1940536 -44.381023 90.476501 0 0 0
-8.3036385 -43.755886 91.346207 0 0 0
-8.5506916 -44.146641 91.202736 0 0 0
-8.4661446 -44.301952 90.921944 0 0 0
-8.4235268 -44.450008 90.672379 0 0 0
-8.4029636 -44.578281 90.429375 0 0 0
-8.3567419 -43.410107 91.675629 0 0 0
-8.5702591 -43.492294 91.790771 0 0 0
-8.7262173 -43.739166 91.712425 0 0 0
-8.6824999 -43.968376 91.478134 0 0 0
-8.7834501 -44.218277 91.319717 0 0 0
-8.6910496 -44.368839 91.066551 0 0 0
-8.8105249 -43.519051 91.936127 0 0 0
-8.9798346 -43.724995 91.889565 0 0 0
-8.9233475 -43.933502 91.683014 0 0 0
-8.9499664 -44.143356 91.513062 0 0 0
-9.0450516 -44.371315 91.352257 0 0 0
-8.9005566 -44.432178 91.174751 0 0 0
-9.3270626 -43.515781 92.236221 0 0 0
-9.167695 -44.109219 91.68425 0 0 0
-9.2244701 -44.313377 91.525711 0 0 0
-9.286911 -44.52438 91.334465 0 0 0
-9.1124439 -44.586231 91.141724 0 0 0
-8.89884 -44.588345 90.966026 0 0 0
-9.5937853 -43.508232 92.350449 0 0 0
-9.5064173 -43.704506 92.172829 0 0 0
-9.3855047 -44.065918 91.829391 0 0 0
-9.4512177 -44.251453 91.696838 0 0 0
-9.4778528 -44.444992 91.523254 0 0 0
-9.8805599 -43.478466 92.466606 0 0 0
-9.7798738 -43.6749 92.291367 0 0 0
-9.8678551 -44.040962 92.034889 0 0 0
-9.6405392 -44.125851 91.884789 0 0 0
-9.712101 -44.377193 91.697449 0 0 0
-10.130099 -43.413139 92.58004 0 0 0
-10.072373 -43.672218 92.385406 0 0 0
-10.095282 -43.917892 92.20533 0 0 0
-10.091464 -44.143032 92.023056 0 0 0
-9.8839493 -44.248127 91.869987 0 0 0
-10.324946 -43.245632 92.720833 0 0 0
-10.6152 -43.631927 92.518044 0 0 0
-10.315093 -43.627533 92.470955 0 0 0
-10.326761 -43.860851 92.302307 0 0 0
-10.277143 -44.044697 92.148308 0 0 0
-10.227879 -44.504494 91.753426 0 0 0
-10.528694 -43.110645 92.827988 0 0 0
-10.618556 -43.296268 92.734779 0 0 0
-10.738935 -43.47723 92.635208 0 0 0
-10.926582 -43.648808 92.526581 0 0 0
-10.785929 -43.810986 92.402878 0 0 0
-10.521439 -43.784893 92.394844 0 0 0
-10.611902 -42.908699 92.932549 0 0 0
-10.791068 -43.107807 92.851364 0 0 0
-10.907817 -43.304512 92.745216 0 0 0
-11.019807 -43.492558 92.632339 0 0 0
-11.248231 -43.615479 92.547607 0 0 0
-11.064084 -43.803383 92.415039 0 0 0
-10.915332 -42.906029 92.953323 0 0 0
-11.071549 -43.127003 92.847359 0 0 0
-11.192694 -43.362663 92.708534 0 0 0
-11.050199 -42.700401 93.040497 0 0 0
-11.21944 -42.919235 92.945633 0 0 0
-11.347752 -43.171085 92.809967 0 0 0
-11.446635 -43.428856 92.649216 0 0 0
-11.545039 -43.660122 92.476959 0 0 0
-11.551645 -44.115009 92.149986 0 0 0
-11.312793 -44.093712 92.185677 0 0 0
-11.461211 -44.277821 92.029037 0 0 0
-11.182366 -44.31638 92.013351 0 0 0
-10.894285 -43.99353 92.26976 0 0 0
-10.627728 -43.96476 92.273132 0 0 0
-11.371323 -44.450062 91.887848 0 0 0
-11.105884 -44.508919 91.840538 0 0 0
-10.891742 -44.378941 91.95417 0 0 0
-10.768429 -44.170921 92.121246 0 0 0
-10.503041 -44.097942 92.149918 0 0 0
-11.559039 -44.560635 91.759087 0 0 0
-11.328207 -44.62886 91.71476 0 0 0
-11.089425 -44.698029 91.650673 0 0 0
-10.870584 -44.602566 91.743065 0 0 0
-10.661915 -44.514622 91.815727 0 0 0
-10.618729 -44.313759 91.98999 0 0 0
-11.589651 -44.713909 91.591469 0 0 0
-11.328901 -44.795033 91.530769 0 0 0
-11.089398 -44.856861 91.467003 0 0 0
-10.857704 -44.810276 91.515831 0 0 0
-10.646592 -44.728771 91.59417 0 0 0
-11.85006 -44.746941 91.485786 0 0 0
-11.552385 -44.876606 91.405518 0 0 0
-11.257571 -44.955303 91.329414 0 0 0
-10.942343 -44.982937 91.299736 0 0 0
-10.661303 -44.928978 91.343353 0 0 0
-11.985414 -44.851246 91.310783 0 0 0
-11.741305 -44.944126 91.262016 0 0 0
-11.460495 -45.040985 91.190544 0 0 0
-11.141465 -45.096504 91.132515 0 0 0
-10.812963 -45.110023 91.095184 0 0 0
-11.957865 -45.005695 91.097168 0 0 0
-11.686149 -45.105194 91.030922 0 0 0
-11.393791 -45.179268 90.972015 0 0 0
-11.086729 -45.218529 90.92012 0 0 0
-11.928999 -45.149487 90.866867 0 0 0
-11.646892 -45.242481 90.800407 0 0 0
-11.357127 -45.304142 90.74408 0 0 0
-11.074004 -45.346355 90.679619 0 0 0
-10.818509 -45.257004 90.833221 0 0 0
-12.185327 -45.169411 90.704666 0 0 0
-11.895211 -45.286442 90.625465 0 0 0
-11.614111 -45.369957 90.558556 0 0 0
-11.324932 -45.420998 90.506844 0 0 0
-11.047329 -45.457127 90.438614 0 0 0
-10.806616 -45.387009 90.580276 0 0 0
-12.152132 -45.288273 90.47908 0 0 0
-11.845642 -45.41106 90.36084 0 0 0
-11.552974 -45.484295 90.314957 0 0 0
-11.458091 -45.591377 90.051971 0 0 0
-11.193946 -45.614601 90.026131 0 0 0
-11.004773 -45.551769 90.206734 0 0 0
-12.111837 -45.388855 90.276299 0 0 0
-11.971135 -45.488514 90.102814 0 0 0
-11.714527 -45.54348 90.092712 0 0 0
-11.606272 -45.652924 89.805031 0 0 0
-11.321289 -45.677803 89.816208 0 0 0
-12.258512 -45.426678 90.077095 0 0 0
-11.86246 -45.58968 89.868362 0 0 0
-11.637514 -45.718895 89.51445 0 0 0
-11.395702 -45.728947 89.602554 0 0 0
-11.347741 -45.810635 89.156464 0 0 0
-11.198448 -45.784203 89.362152 0 0 0
-11.11946 -45.743961 89.591133 0 0 0
-11.037519 -45.690369 89.796761 0 0 0
-11.30592 -45.843555 88.924294 0 0 0
-11.070528 -45.821423 89.1194 0 0 0
-10.937201 -45.783043 89.368378 0 0 0
-10.836605 -45.738697 89.598839 0 0 0
-10.763359 -45.675163 89.825806 0 0 0
-10.950233 -45.632969 89.989571 0 0 0
-11.27643 -45.866249 88.69735 0 0 0
-11.05538 -45.85648 88.834389 0 0 0
-10.76968 -45.805641 89.176407 0 0 0
-10.635482 -45.760059 89.405617 0 0 0
-10.555107 -45.710281 89.641457 0 0 0
-10.533379 -45.633713 89.913345 0 0 0
-11.069838 -45.865952 88.561066 0 0 0
-10.803127 -45.858761 88.704002 0 0 0
-10.620055 -45.825768 88.946022 0 0 0
-10.479693 -45.777908 89.197723 0 0 0
-10.329916 -45.717697 89.444252 0 0 0
-10.322566 -45.65527 89.732025 0 0 0
-10.877723 -45.847591 88.40464 0 0 0
-10.643727 -45.848236 88.522751 0 0 0
-10.488642 -45.837074 88.720085 0 0 0
-10.354161 -45.797932 88.941071 0 0 0
-10.21235 -45.743404 89.189163 0 0 0
-10.639555 -45.801636 88.282883 0 0 0
-10.388626 -45.825363 88.472694 0 0 0
-10.188603 -45.788345 88.685654 0 0 0
