ply
format ascii 1.0
comment PCL generated
element vertex 1290
property float x
property float y
property float z
property uchar red
property uchar green
property uchar blue
element camera 0
property float view_px
property float view_py
property float view_pz
property float x_axisx
property float x_axisy
property float x_axisz
property float y_axisx
property float y_axisy
property float y_axisz
property float z_axisx
property float z_axisy
property float z_axisz
property float focal
property float scalex
property float scaley
property float centerx
property float centery
property int viewportx
property int viewporty
property float k1
property float k2
end_header
97.886177 -23.789133 43.600033 0 0 0
97.871147 -23.643696 43.367691 0 0 0
97.975739 -23.526064 43.205334 0 0 0
98.837433 -24.001242 44.34845 0 0 0
98.630447 -24.110184 44.506332 0 0 0
98.19873 -24.148365 44.426685 0 0 0
98.003281 -24.096802 44.242165 0 0 0
97.810181 -24.0231 44.033489 0 0 0
97.701981 -23.906836 43.796013 0 0 0
97.561638 -23.794718 43.590687 0 0 0
98.176994 -24.23637 44.684219 0 0 0
97.938614 -24.282366 44.756542 0 0 0
97.740257 -24.235497 44.575817 0 0 0
97.788307 -24.140528 44.318165 0 0 0
97.610199 -24.093851 44.181358 0 0 0
97.521156 -24.003269 43.984737 0 0 0
98.389511 -24.261549 44.862556 0 0 0
98.147858 -24.313869 44.939274 0 0 0
97.889343 -24.351919 45.0051 0 0 0
97.689384 -24.31616 44.828491 0 0 0
97.497986 -24.261993 44.641659 0 0 0
97.358711 -24.103947 44.212997 0 0 0
98.619041 -24.191847 44.757244 0 0 0
98.605484 -24.264334 45.035839 0 0 0
98.369614 -24.323364 45.133221 0 0 0
98.099854 -24.370275 45.188503 0 0 0
97.827202 -24.406776 45.253311 0 0 0
97.611679 -24.378586 45.074631 0 0 0
97.432968 -24.339489 44.918369 0 0 0
97.102226 -24.256746 44.683563 0 0 0
97.264481 -24.192932 44.462917 0 0 0
96.825882 -24.086283 44.282433 0 0 0
97.231773 -23.994913 43.996067 0 0 0
97.568367 -24.420599 45.295757 0 0 0
97.31459 -24.393585 45.178669 0 0 0
97.16468 -24.328903 44.939037 0 0 0
96.896584 -24.273575 44.821091 0 0 0
96.717438 -24.173285 44.562351 0 0 0
97.406792 -24.441616 45.455807 0 0 0
97.120232 -24.422338 45.413921 0 0 0
97.020592 -24.362513 45.133251 0 0 0
96.765907 -24.319294 45.083035 0 0 0
96.625587 -24.235382 44.818439 0 0 0
96.432953 -24.129187 44.60527 0 0 0
96.545631 -24.060085 44.340328 0 0 0
96.852417 -24.390923 45.375195 0 0 0
96.565987 -24.337193 45.315125 0 0 0
96.524162 -24.274101 45.060238 0 0 0
96.347771 -24.190697 44.886974 0 0 0
96.163437 -24.084398 44.704266 0 0 0
96.249054 -24.007881 44.405235 0 0 0
96.945946 -24.436792 45.678913 0 0 0
96.652397 -24.384823 45.565517 0 0 0
96.324554 -24.30686 45.501186 0 0 0
96.311646 -24.252253 45.200092 0 0 0
96.10334 -24.155867 45.012127 0 0 0
95.897301 -24.041441 44.831566 0 0 0
95.948929 -23.972385 44.559914 0 0 0
96.709763 -24.419249 45.842091 0 0 0
96.463097 -24.36698 45.728153 0 0 0
96.228905 -24.31395 45.818531 0 0 0
96.04557 -24.247105 45.615803 0 0 0
96.082069 -24.210762 45.322273 0 0 0
95.854378 -24.10433 45.142799 0 0 0
96.442482 -24.373989 45.986599 0 0 0
96.199226 -24.31514 46.151257 0 0 0
95.98938 -24.247843 45.930145 0 0 0
95.79216 -24.164467 45.728844 0 0 0
95.824562 -24.147339 45.421318 0 0 0
95.570618 -24.019979 45.250072 0 0 0
95.673767 -23.999638 44.968472 0 0 0
95.932228 -24.235973 46.217175 0 0 0
95.722702 -24.15239 46.009365 0 0 0
95.515823 -24.057909 45.802284 0 0 0
95.610649 -24.079014 45.53561 0 0 0
95.387306 -23.975851 45.530472 0 0 0
95.301117 -23.891396 45.223778 0 0 0
95.446625 -23.899834 44.957363 0 0 0
95.66851 -24.129875 46.286152 0 0 0
95.455658 -24.0373 46.075497 0 0 0
95.251144 -23.93322 45.846573 0 0 0
95.873512 -24.193556 46.495449 0 0 0
95.627686 -24.091272 46.567036 0 0 0
95.425339 -24.017023 46.377651 0 0 0
95.028252 -23.814739 46.041302 0 0 0
95.00016 -23.798084 45.75935 0 0 0
95.1633 -23.863909 45.520596 0 0 0
95.822662 -24.145479 46.760502 0 0 0
95.605247 -24.042398 46.848858 0 0 0
95.402702 -23.976152 46.676167 0 0 0
95.210197 -23.887785 46.508579 0 0 0
95.017357 -23.789755 46.35183 0 0 0
94.820114 -23.671577 46.213886 0 0 0
94.799362 -23.662895 45.932026 0 0 0
95.39621 -23.927076 46.966648 0 0 0
95.20163 -23.843563 46.823269 0 0 0
95.006531 -23.745794 46.656734 0 0 0
94.816254 -23.631002 46.509167 0 0 0
94.639168 -23.511419 46.364349 0 0 0
94.620911 -23.521723 46.073238 0 0 0
95.236145 -23.776415 47.144558 0 0 0
95.018623 -23.696428 46.947495 0 0 0
94.802956 -23.571941 46.792549 0 0 0
94.615181 -23.447573 46.645157 0 0 0
94.446495 -23.326469 46.457417 0 0 0
94.481575 -23.386375 46.211365 0 0 0
95.041245 -23.630163 47.210114 0 0 0
94.830124 -23.524055 47.048473 0 0 0
94.60688 -23.364498 46.921406 0 0 0
94.417091 -23.241508 46.716419 0 0 0
94.262451 -23.137262 46.482552 0 0 0
94.313805 -23.22057 46.203995 0 0 0
95.227707 -23.673239 47.436787 0 0 0
95.047455 -23.549387 47.454639 0 0 0
94.869209 -23.456238 47.330376 0 0 0
94.704025 -23.368984 47.187851 0 0 0
94.39534 -23.151657 46.957653 0 0 0
94.211205 -23.019777 46.753525 0 0 0
94.095985 -22.959085 46.467815 0 0 0
95.172974 -23.540159 47.684605 0 0 0
95.074913 -23.387369 47.864929 0 0 0
94.852188 -23.262943 47.746792 0 0 0
94.652718 -23.115841 47.680347 0 0 0
94.381493 -23.04912 47.220093 0 0 0
94.218384 -22.945377 47.026566 0 0 0
93.903648 -22.640793 46.845173 0 0 0
94.021637 -22.825916 46.681492 0 0 0
94.97094 -23.212587 48.023701 0 0 0
94.805435 -23.003923 48.14518 0 0 0
94.616302 -22.954905 47.923038 0 0 0
94.470963 -22.939186 47.682281 0 0 0
94.280273 -22.751015 47.662392 0 0 0
94.226273 -22.867764 47.262581 0 0 0
94.060051 -22.711637 47.177883 0 0 0
94.588539 -22.803894 48.141964 0 0 0
94.429314 -22.783936 47.897053 0 0 0
94.232834 -22.599939 47.852776 0 0 0
94.082993 -22.554689 47.615376 0 0 0
93.958328 -22.521597 47.357513 0 0 0
93.874214 -22.522867 47.088566 0 0 0
94.737343 -22.802732 48.350639 0 0 0
94.543678 -22.608654 48.363098 0 0 0
94.396889 -22.635769 48.096367 0 0 0
94.201866 -22.445141 48.036217 0 0 0
94.0467 -22.398149 47.81279 0 0 0
93.894371 -22.347332 47.569359 0 0 0
93.778305 -22.313244 47.306664 0 0 0
94.736031 -22.628754 48.56987 0 0 0
94.568855 -22.430418 48.608364 0 0 0
94.394478 -22.371775 48.440945 0 0 0
94.354851 -22.483662 48.245792 0 0 0
94.208572 -22.293293 48.243698 0 0 0
94.043182 -22.242502 48.028973 0 0 0
93.888115 -22.186872 47.798393 0 0 0
93.734291 -22.122503 47.542839 0 0 0
94.408226 -22.197796 48.644192 0 0 0
94.110069 -21.95789 48.452446 0 0 0
94.245575 -21.954941 48.649578 0 0 0
94.059517 -21.752365 48.570438 0 0 0
93.954651 -21.850636 48.310089 0 0 0
93.917061 -22.022076 48.057701 0 0 0
93.865822 -21.606579 48.400276 0 0 0
93.812553 -21.782047 48.125168 0 0 0
93.781067 -21.969828 47.848278 0 0 0
94.021141 -21.536327 48.698864 0 0 0
93.845764 -21.381805 48.577709 0 0 0
93.7015 -21.378754 48.326187 0 0 0
93.562378 -21.339863 48.088722 0 0 0
93.536369 -21.662367 47.66684 0 0 0
93.58091 -21.906197 47.470848 0 0 0
93.995293 -21.261967 48.848984 0 0 0
93.826332 -21.174318 48.674385 0 0 0
93.673912 -21.148937 48.452103 0 0 0
93.545883 -21.111774 48.253563 0 0 0
93.447723 -21.111048 48.039715 0 0 0
93.431801 -21.268135 47.850227 0 0 0
93.857834 -20.989193 48.813431 0 0 0
93.698738 -20.971968 48.586258 0 0 0
93.544136 -20.857159 48.386169 0 0 0
93.409058 -20.870241 48.112316 0 0 0
93.33046 -20.969919 47.86549 0 0 0
93.316505 -21.153433 47.676491 0 0 0
93.858452 -20.741003 48.921562 0 0 0
93.708359 -20.542747 48.785812 0 0 0
93.565575 -20.380608 48.621632 0 0 0
93.402 -20.630749 48.212132 0 0 0
93.266861 -20.701069 47.881805 0 0 0
93.216019 -20.906252 47.621971 0 0 0
93.871071 -20.464485 49.043331 0 0 0
93.703964 -20.278145 48.866085 0 0 0
93.538673 -20.140812 48.640888 0 0 0
93.424828 -20.34481 48.366703 0 0 0
93.293167 -20.440714 48.05571 0 0 0
93.169022 -20.46945 47.745037 0 0 0
93.13018 -20.680523 47.543007 0 0 0
93.845108 -20.15798 49.086281 0 0 0
93.686508 -19.990696 48.885395 0 0 0
93.539055 -19.84704 48.677677 0 0 0
93.417679 -20.028406 48.438114 0 0 0
93.312462 -20.171122 48.18502 0 0 0
93.214966 -19.987812 48.01635 0 0 0
94.02758 -20.290943 49.271194 0 0 0
94.0243 -20.027578 49.301922 0 0 0
93.840202 -19.862093 49.109241 0 0 0
93.690292 -19.686232 48.899799 0 0 0
93.544601 -19.545315 48.682262 0 0 0
93.409363 -19.710051 48.467171 0 0 0
93.311951 -19.876019 48.257351 0 0 0
94.229462 -20.188259 49.499264 0 0 0
94.225342 -19.930897 49.507225 0 0 0
94.034523 -19.755133 49.314701 0 0 0
93.858727 -19.571348 49.116146 0 0 0
93.709984 -19.377716 48.902084 0 0 0
93.531631 -19.274223 48.636459 0 0 0
93.282578 -19.559437 48.239857 0 0 0
93.220131 -19.734406 48.083836 0 0 0
94.236847 -19.66497 49.516361 0 0 0
94.06823 -19.486347 49.334904 0 0 0
93.915314 -19.306803 49.152393 0 0 0
93.819496 -19.106874 49.008179 0 0 0
93.658653 -19.09515 48.792553 0 0 0
94.42691 -19.844816 49.690971 0 0 0
94.446747 -19.580111 49.709526 0 0 0
94.276207 -19.39864 49.541916 0 0 0
94.131714 -19.221373 49.374657 0 0 0
94.004425 -19.033461 49.210304 0 0 0
93.909996 -18.800423 49.060837 0 0 0
93.769028 -18.859688 48.896732 0 0 0
94.608459 -19.748484 49.852356 0 0 0
94.688759 -19.529036 49.918789 0 0 0
94.487816 -19.345346 49.730385 0 0 0
94.347389 -19.131954 49.575493 0 0 0
94.197304 -18.962418 49.402138 0 0 0
94.085327 -18.760775 49.24099 0 0 0
94.188484 -18.50326 49.266731 0 0 0
93.820633 -18.566729 48.874413 0 0 0
94.680466 -19.289513 49.888729 0 0 0
94.51297 -18.94206 49.689949 0 0 0
94.387398 -18.847826 49.558563 0 0 0
94.270828 -18.700571 49.413231 0 0 0
94.868507 -19.324186 50.035854 0 0 0
94.800285 -19.075476 49.955372 0 0 0
94.603645 -18.702374 49.712547 0 0 0
94.36116 -18.467752 49.432098 0 0 0
94.345169 -18.264595 49.342625 0 0 0
93.966125 -18.307377 48.943718 0 0 0
95.010437 -19.083281 50.104595 0 0 0
94.92334 -18.835367 50.000298 0 0 0
94.815048 -18.625916 49.866894 0 0 0
94.678848 -18.437353 49.70525 0 0 0
94.537201 -18.307693 49.54192 0 0 0
95.093323 -19.330036 50.186783 0 0 0
95.237808 -19.100977 50.253277 0 0 0
95.136429 -18.848896 50.143539 0 0 0
95.042274 -18.587688 50.021179 0 0 0
94.87516 -18.371004 49.841022 0 0 0
94.735252 -18.152634 49.654472 0 0 0
94.532173 -18.075466 49.437138 0 0 0
94.326866 -18.049458 49.2299 0 0 0
95.071815 -18.327036 49.964626 0 0 0
94.970428 -18.110804 49.81501 0 0 0
94.909843 -17.923004 49.691471 0 0 0
94.84185 -17.720926 49.534599 0 0 0
94.514435 -17.827488 49.291012 0 0 0
95.167885 -18.080112 49.933609 0 0 0
95.195488 -17.866709 49.856861 0 0 0
95.058517 -17.70331 49.696133 0 0 0
94.934296 -17.514185 49.485493 0 0 0
94.70182 -17.593372 49.33091 0 0 0
94.303917 -17.617392 48.930256 0 0 0
94.318214 -17.832714 49.090302 0 0 0
95.308739 -17.624891 49.811077 0 0 0
95.150169 -17.496061 49.641773 0 0 0
95.115417 -17.302563 49.491814 0 0 0
94.874458 -17.326113 49.305782 0 0 0
94.665573 -17.358761 49.127979 0 0 0
95.083649 -17.112965 49.330261 0 0 0
94.848366 -17.106667 49.109886 0 0 0
94.600853 -17.164488 48.911381 0 0 0
94.2519 -17.421867 48.713745 0 0 0
94.0383 -17.557547 48.559361 0 0 0
93.951462 -17.821512 48.653778 0 0 0
94.126122 -17.85182 48.886688 0 0 0
95.08548 -16.922773 49.165199 0 0 0
94.927826 -16.847094 48.949379 0 0 0
94.734352 -16.97002 48.876823 0 0 0
94.557755 -16.959158 48.656002 0 0 0
94.175095 -17.264618 48.483845 0 0 0
93.961876 -17.483793 48.388763 0 0 0
93.815262 -17.754911 48.408772 0 0 0
95.162338 -16.70076 49.000759 0 0 0
95.125687 -16.429277 48.638889 0 0 0
94.761932 -16.767647 48.687157 0 0 0
94.58007 -16.735542 48.43483 0 0 0
94.370049 -16.996841 48.457973 0 0 0
94.179794 -17.060644 48.258114 0 0 0
93.995171 -17.297508 48.249229 0 0 0
95.277763 -16.49789 48.869423 0 0 0
95.399658 -16.304401 48.747318 0 0 0
95.254677 -16.223848 48.504612 0 0 0
94.999634 -16.352917 48.40778 0 0 0
94.743881 -16.490191 48.303722 0 0 0
94.522156 -16.597256 48.165039 0 0 0
94.350861 -16.825298 48.221889 0 0 0
94.131783 -16.913694 47.988266 0 0 0
94.010254 -17.134626 48.069057 0 0 0
95.161514 -16.143757 48.281845 0 0 0
94.90947 -16.262774 48.173203 0 0 0
94.685631 -16.367645 48.048729 0 0 0
94.486649 -16.461178 47.89225 0 0 0
94.318024 -16.683872 47.970871 0 0 0
94.155334 -16.745424 47.756134 0 0 0
93.886421 -16.929995 47.473026 0 0 0
95.066498 -16.07053 48.038448 0 0 0
94.854759 -16.158289 47.917946 0 0 0
94.646706 -16.256113 47.781235 0 0 0
94.460442 -16.340675 47.613106 0 0 0
94.316475 -16.538712 47.706745 0 0 0
94.165993 -16.598928 47.503323 0 0 0
95.311546 -15.970382 48.140907 0 0 0
95.216698 -15.918506 47.919479 0 0 0
95.036186 -15.961205 47.771824 0 0 0
94.811333 -16.074677 47.663151 0 0 0
94.620079 -16.155085 47.503166 0 0 0
94.443748 -16.246775 47.338844 0 0 0
94.281975 -16.433197 47.410271 0 0 0
95.4328 -15.806947 47.93499 0 0 0
95.284554 -15.795388 47.726341 0 0 0
95.145142 -15.802068 47.531609 0 0 0
94.953766 -15.924294 47.540096 0 0 0
94.785538 -15.984358 47.380283 0 0 0
94.453743 -16.154757 47.086853 0 0 0
94.265694 -16.353317 47.140934 0 0 0
95.536179 -15.661438 47.724903 0 0 0
95.374962 -15.668136 47.514824 0 0 0
95.211594 -15.687972 47.294434 0 0 0
94.989395 -15.827546 47.301838 0 0 0
94.818977 -15.822211 46.857273 0 0 0
94.598328 -15.992628 46.902763 0 0 0
95.656586 -15.692316 47.932991 0 0 0
95.871155 -15.610016 47.944126 0 0 0
95.621208 -15.550187 47.517609 0 0 0
95.456841 -15.562213 47.291588 0 0 0
95.313324 -15.584912 47.077293 0 0 0
95.011429 -15.693559 46.823154 0 0 0
94.914543 -15.714508 46.588367 0 0 0
94.689995 -15.865949 46.609493 0 0 0
95.859589 -15.447277 47.499889 0 0 0
95.685013 -15.453541 47.280708 0 0 0
95.412895 -15.486895 46.821407 0 0 0
95.349808 -15.471311 46.534763 0 0 0
95.093216 -15.588869 46.414066 0 0 0
94.830353 -15.742452 46.318794 0 0 0
96.080009 -15.42173 47.656796 0 0 0
96.089363 -15.336476 47.411777 0 0 0
95.894432 -15.361374 47.272747 0 0 0
95.575409 -15.341636 46.394474 0 0 0
95.336517 -15.448539 46.276672 0 0 0
95.08017 -15.581444 46.16489 0 0 0
96.080719 -15.503255 47.869335 0 0 0
93.947845 -18.058704 48.808575 0 0 0
93.801819 -18.286106 48.735287 0 0 0
93.672272 -18.504034 48.644562 0 0 0
93.657608 -18.781675 48.720985 0 0 0
93.792282 -18.013901 48.569984 0 0 0
93.660027 -18.237448 48.497395 0 0 0
93.541496 -18.455212 48.413235 0 0 0
93.538193 -18.720203 48.515152 0 0 0
93.516319 -18.9974 48.567848 0 0 0
93.644897 -17.994169 48.319809 0 0 0
93.521149 -18.224279 48.253151 0 0 0
93.406784 -18.474136 48.171444 0 0 0
93.404305 -18.895838 48.327759 0 0 0
93.383537 -19.153671 48.357578 0 0 0
93.651733 -17.792097 48.149361 0 0 0
93.492882 -18.039837 48.032536 0 0 0
93.401428 -18.287149 48.034149 0 0 0
93.319954 -18.265984 47.811626 0 0 0
93.186279 -18.526829 47.639786 0 0 0
93.320511 -18.728392 48.099285 0 0 0
93.808716 -17.551544 48.196541 0 0 0
93.687126 -17.566462 47.958012 0 0 0
93.529129 -17.809547 47.893127 0 0 0
93.388649 -18.009443 47.744789 0 0 0
93.834877 -17.345121 47.998722 0 0 0
93.71032 -17.351242 47.729092 0 0 0
93.583557 -17.586443 47.744457 0 0 0
93.445244 -17.759281 47.618217 0 0 0
93.639603 -17.27667 47.431812 0 0 0
93.484207 -17.425831 47.236973 0 0 0
93.392227 -17.668468 47.350727 0 0 0
93.275436 -17.836872 47.207821 0 0 0
93.202812 -18.11651 47.319614 0 0 0
93.247421 -18.222198 47.56884 0 0 0
93.591759 -17.188648 47.146729 0 0 0
93.446617 -17.359177 46.947758 0 0 0
93.344177 -17.591616 47.053913 0 0 0
93.225739 -17.786592 46.919205 0 0 0
93.172676 -18.007036 47.083817 0 0 0
93.742119 -16.940292 47.07111 0 0 0
93.58548 -17.101736 46.886379 0 0 0
93.451675 -17.271086 46.683929 0 0 0
93.304939 -17.553461 46.745491 0 0 0
93.163811 -17.840368 46.670734 0 0 0
93.111176 -18.061474 46.863052 0 0 0
93.904617 -16.801003 47.246513 0 0 0
93.928078 -16.682745 47.018875 0 0 0
93.752548 -16.848394 46.834755 0 0 0
93.602493 -17.008192 46.638092 0 0 0
93.490242 -17.144148 46.41111 0 0 0
93.343323 -17.412388 46.483566 0 0 0
94.091469 -16.567295 47.221901 0 0 0
94.121597 -16.438068 46.936199 0 0 0
93.930115 -16.612179 46.778099 0 0 0
93.777916 -16.756968 46.593418 0 0 0
93.652885 -16.896082 46.414394 0 0 0
94.349525 -16.197384 46.891876 0 0 0
94.246864 -16.243814 46.67889 0 0 0
94.076561 -16.423948 46.682034 0 0 0
93.833069 -16.650414 46.341259 0 0 0
93.729576 -16.769844 46.197533 0 0 0
93.587181 -16.966766 46.193909 0 0 0
94.464561 -16.041864 46.650684 0 0 0
94.335648 -16.120554 46.411701 0 0 0
94.135925 -16.319368 46.434677 0 0 0
94.004799 -16.438606 46.224777 0 0 0
93.877411 -16.584007 46.060413 0 0 0
93.720627 -16.785847 45.969456 0 0 0
94.570992 -15.927954 46.374474 0 0 0
94.419548 -16.0404 46.152847 0 0 0
94.189301 -16.241142 46.173206 0 0 0
94.048965 -16.39992 45.928337 0 0 0
93.855446 -16.630243 45.800404 0 0 0
94.660019 -15.858173 46.098743 0 0 0
94.505241 -15.975816 45.886074 0 0 0
94.268059 -16.178186 45.935806 0 0 0
94.176834 -16.282413 45.689537 0 0 0
93.987022 -16.494528 45.636089 0 0 0
94.882355 -15.70283 46.003651 0 0 0
94.727699 -15.826389 45.786243 0 0 0
94.573662 -15.96295 45.57309 0 0 0
94.375648 -16.100773 45.708355 0 0 0
94.37986 -16.139597 45.460278 0 0 0
94.155205 -16.355751 45.435623 0 0 0
95.119049 -15.568832 45.888287 0 0 0
94.955322 -15.684224 45.687546 0 0 0
94.79567 -15.826611 45.472198 0 0 0
94.605415 -16.007465 45.265442 0 0 0
95.34536 -15.435873 46.033783 0 0 0
95.355019 -15.445913 45.798897 0 0 0
95.209557 -15.546558 45.61013 0 0 0
95.06295 -15.665017 45.395103 0 0 0
94.900803 -15.814808 45.206154 0 0 0
95.603676 -15.311265 46.127087 0 0 0
95.603058 -15.317953 45.865582 0 0 0
95.499306 -15.39013 45.600563 0 0 0
95.337265 -15.511323 45.372387 0 0 0
95.205475 -15.638931 45.117722 0 0 0
95.817184 -15.242117 46.279934 0 0 0
95.874687 -15.213087 45.955185 0 0 0
95.788353 -15.257023 45.654537 0 0 0
95.650261 -15.352299 45.381794 0 0 0
95.489281 -15.469825 45.182606 0 0 0
96.010483 -15.208294 46.525269 0 0 0
96.045235 -15.164813 46.209988 0 0 0
96.158051 -15.120809 45.968273 0 0 0
96.074165 -15.151087 45.687763 0 0 0
95.923714 -15.23395 45.396225 0 0 0
95.778648 -15.349867 45.110245 0 0 0
96.048004 -15.281577 47.115135 0 0 0
96.246292 -15.165035 46.703976 0 0 0
96.548248 -15.090399 46.732609 0 0 0
96.444466 -15.057269 46.047012 0 0 0
96.391022 -15.063505 45.805737 0 0 0
96.276596 -15.245055 47.288643 0 0 0
96.218681 -15.210037 46.986164 0 0 0
96.659065 -15.106163 47.001892 0 0 0
96.82766 -15.049879 46.810841 0 0 0
96.887611 -14.999249 46.376179 0 0 0
96.913963 -14.983361 46.142311 0 0 0
96.676445 -15.009783 45.956268 0 0 0
96.468895 -15.178821 47.166538 0 0 0
96.907272 -15.080307 47.083611 0 0 0
97.10511 -15.023302 46.886921 0 0 0
97.004936 -15.001149 46.613762 0 0 0
97.15696 -14.96659 46.370411 0 0 0
97.382782 -14.942304 46.246178 0 0 0
96.943024 -14.97231 45.866974 0 0 0
96.672035 -15.008087 45.66584 0 0 0
97.161835 -15.060798 47.154041 0 0 0
97.401527 -15.012974 46.971287 0 0 0
97.455368 -14.950733 46.487411 0 0 0
97.457458 -14.934056 46.007538 0 0 0
97.244888 -14.944921 45.761532 0 0 0
96.963783 -14.97012 45.637222 0 0 0
97.52005 -14.975173 46.748493 0 0 0
97.746307 -14.966952 46.631702 0 0 0
97.940628 -14.962518 46.496838 0 0 0
98.013298 -14.941612 45.977859 0 0 0
97.863754 -14.934254 45.739754 0 0 0
97.409813 -14.940842 45.515221 0 0 0
97.132904 -14.962485 45.46151 0 0 0
96.822861 -14.995435 45.404297 0 0 0
98.134254 -14.957999 46.266315 0 0 0
98.275963 -14.959684 45.97546 0 0 0
98.163025 -14.955265 45.719425 0 0 0
98.018784 -14.955414 45.492886 0 0 0
97.853767 -14.961007 45.264652 0 0 0
97.563095 -14.949015 45.2813 0 0 0
97.29171 -14.967504 45.240501 0 0 0
97.007889 -14.996179 45.18927 0 0 0
98.446747 -14.989388 45.750439 0 0 0
98.326797 -14.994853 45.468552 0 0 0
98.116188 -14.990253 45.239491 0 0 0
98.17868 -15.033615 44.98629 0 0 0
97.704857 -14.976383 45.068954 0 0 0
97.455307 -14.987247 45.006569 0 0 0
98.572685 -15.004286 46.020798 0 0 0
98.742043 -15.042536 45.841316 0 0 0
98.629173 -15.03951 45.57872 0 0 0
98.957901 -15.113771 45.643131 0 0 0
98.802528 -15.096888 45.426487 0 0 0
98.586296 -15.107594 45.01535 0 0 0
98.983017 -15.10154 45.907688 0 0 0
99.222313 -15.182219 45.812996 0 0 0
99.240524 -15.209609 45.549965 0 0 0
99.02919 -15.170148 45.372162 0 0 0
98.850815 -15.245206 44.637962 0 0 0
98.591469 -15.159206 44.724472 0 0 0
98.375519 -15.093585 44.835625 0 0 0
99.480148 -15.282215 45.718731 0 0 0
99.490936 -15.319637 45.435066 0 0 0
99.263496 -15.261931 45.278793 0 0 0
99.053169 -15.269946 44.831257 0 0 0
99.093521 -15.337284 44.57494 0 0 0
98.911888 -15.346366 44.364967 0 0 0
98.632652 -15.23215 44.480053 0 0 0
99.71759 -15.393728 45.587402 0 0 0
99.713776 -15.439292 45.280357 0 0 0
99.499916 -15.375051 45.158577 0 0 0
99.709457 -15.512292 44.961494 0 0 0
99.406044 -15.529984 44.350597 0 0 0
99.170837 -15.432812 44.350452 0 0 0
99.712082 -15.370679 45.895184 0 0 0
99.94458 -15.494897 45.732441 0 0 0
99.928009 -15.523442 45.433746 0 0 0
99.903679 -15.567447 45.133018 0 0 0
99.947556 -15.488873 46.036186 0 0 0
100.18165 -15.619567 45.846924 0 0 0
100.15966 -15.630711 45.55484 0 0 0
100.12604 -15.661994 45.275528 0 0 0
100.08775 -15.696173 45.013821 0 0 0
99.783081 -15.630795 44.656189 0 0 0
100.20966 -15.633554 46.133934 0 0 0
100.38577 -15.767915 45.652302 0 0 0
100.34978 -15.791043 45.357471 0 0 0
100.29314 -15.812094 45.072117 0 0 0
100.16298 -15.815607 44.784901 0 0 0
99.796371 -15.723771 44.376759 0 0 0
99.57531 -15.653292 44.228893 0 0 0
99.321915 -15.571362 44.147564 0 0 0
100.56581 -15.923133 45.45166 0 0 0
100.51286 -15.946288 45.141212 0 0 0
100.38833 -15.946103 44.842419 0 0 0
100.16358 -15.976646 44.331413 0 0 0
99.950829 -15.876638 44.227936 0 0 0
99.732689 -15.79866 44.091095 0 0 0
99.487747 -15.721466 43.989128 0 0 0
100.735 -16.087156 45.290165 0 0 0
100.70023 -16.115473 45.058468 0 0 0
100.57928 -16.085133 44.865013 0 0 0
100.3035 -16.147837 44.15329 0 0 0
100.09278 -16.045774 44.050129 0 0 0
99.876076 -15.962565 43.921616 0 0 0
99.644676 -15.887222 43.833313 0 0 0
100.89786 -16.272207 45.108181 0 0 0
100.79335 -16.270176 44.861469 0 0 0
100.66917 -16.246161 44.645981 0 0 0
100.64529 -16.330069 44.392693 0 0 0
100.50389 -16.327791 44.117359 0 0 0
100.27756 -16.238377 43.92802 0 0 0
100.02503 -16.145193 43.790604 0 0 0
99.775406 -16.077379 43.642231 0 0 0
99.524353 -15.956123 43.621929 0 0 0
99.378983 -15.807148 43.753952 0 0 0
100.43591 -16.448109 43.820213 0 0 0
100.2106 -16.3421 43.695885 0 0 0
99.965576 -16.267153 43.553883 0 0 0
99.757927 -16.256914 43.388298 0 0 0
100.60989 -16.532072 43.939526 0 0 0
100.60159 -16.69783 43.687881 0 0 0
100.36474 -16.566566 43.571461 0 0 0
100.14891 -16.45413 43.47913 0 0 0
99.758064 -16.451118 43.150749 0 0 0
99.544342 -16.271116 43.212555 0 0 0
100.7796 -16.710041 43.933208 0 0 0
100.81177 -16.906092 43.718079 0 0 0
100.6842 -16.954027 43.492195 0 0 0
100.47231 -16.771629 43.44136 0 0 0
100.35844 -16.843496 43.241325 0 0 0
100.1622 -16.81945 43.08593 0 0 0
99.970261 -16.648333 43.105965 0 0 0
100.87775 -17.158337 43.520329 0 0 0
100.7537 -17.238668 43.291866 0 0 0
100.56021 -17.025097 43.274506 0 0 0
100.38568 -17.043472 43.087624 0 0 0
100.18589 -17.015306 42.937752 0 0 0
99.958427 -16.876709 42.884201 0 0 0
99.750557 -16.658081 42.938519 0 0 0
100.94485 -17.436033 43.352261 0 0 0
100.79034 -17.523897 43.114399 0 0 0
100.59013 -17.270252 43.094654 0 0 0
100.28339 -17.395115 42.735401 0 0 0
100.03056 -17.344473 42.576626 0 0 0
99.88665 -17.084999 42.669945 0 0 0
99.713989 -16.85647 42.744965 0 0 0
101.03133 -17.707756 43.251972 0 0 0
100.91034 -17.830452 43.03957 0 0 0
100.68966 -17.704374 42.891388 0 0 0
100.54784 -17.461817 42.915161 0 0 0
100.44492 -17.622177 42.71484 0 0 0
100.1814 -17.557528 42.544338 0 0 0
101.12878 -18.00362 43.196201 0 0 0
100.99534 -18.143423 42.964214 0 0 0
100.79218 -17.985256 42.829605 0 0 0
100.56676 -17.866617 42.684757 0 0 0
101.18421 -18.279249 43.117561 0 0 0
101.04638 -18.467115 42.878967 0 0 0
100.85603 -18.280375 42.759312 0 0 0
100.50984 -18.237497 42.452614 0 0 0
100.33763 -17.787657 42.527245 0 0 0
100.10797 -17.729206 42.388412 0 0 0
99.909554 -17.561819 42.359303 0 0 0
100.86331 -18.552525 42.65873 0 0 0
100.68209 -18.385481 42.549068 0 0 0
101.02225 -18.770042 42.749306 0 0 0
100.82428 -18.809469 42.543129 0 0 0
100.64974 -18.624086 42.441658 0 0 0
101.1916 -18.766035 42.935772 0 0 0
101.15853 -19.053663 42.8344 0 0 0
100.77299 -19.062881 42.44503 0 0 0
100.61662 -18.871468 42.347763 0 0 0
100.42342 -18.668747 42.244881 0 0 0
101.34758 -18.991827 43.057724 0 0 0
101.3202 -19.219753 42.98053 0 0 0
101.21072 -19.388994 42.841377 0 0 0
101.05515 -19.300562 42.691296 0 0 0
100.74596 -19.352812 42.388443 0 0 0
100.59132 -19.150909 42.27853 0 0 0
100.42211 -18.945557 42.178654 0 0 0
101.38541 -19.472803 43.038174 0 0 0
101.24919 -19.69022 42.883373 0 0 0
101.08153 -19.609516 42.70332 0 0 0
100.91457 -19.512171 42.538139 0 0 0
100.74473 -19.645079 42.38924 0 0 0
100.57443 -19.448042 42.245209 0 0 0
100.40512 -19.238028 42.131397 0 0 0
101.42005 -19.738985 43.084225 0 0 0
101.27282 -19.976974 42.932438 0 0 0
101.10197 -19.908794 42.737156 0 0 0
100.92235 -19.799234 42.557499 0 0 0
100.75588 -20.225027 42.446651 0 0 0
100.56065 -19.746569 42.242268 0 0 0
100.37958 -19.521845 42.102592 0 0 0
101.43521 -20.009947 43.138073 0 0 0
101.30399 -20.269838 43.011684 0 0 0
101.11997 -20.213165 42.795261 0 0 0
100.93792 -20.105824 42.597076 0 0 0
101.4528 -20.274609 43.203773 0 0 0
101.37846 -20.545332 43.17564 0 0 0
101.17213 -20.493374 42.908787 0 0 0
100.9508 -20.427422 42.665028 0 0 0
100.73367 -20.500435 42.484215 0 0 0
100.55124 -20.322647 42.298168 0 0 0
100.53229 -20.040983 42.247059 0 0 0
101.22544 -20.760317 43.056038 0 0 0
101.02834 -20.718016 42.815247 0 0 0
100.82774 -20.726368 42.625889 0 0 0
100.6129 -20.783358 42.451962 0 0 0
100.35569 -20.504683 42.181259 0 0 0
100.33994 -20.236885 42.125729 0 0 0
101.39651 -20.847782 43.306267 0 0 0
101.24696 -21.03134 43.193062 0 0 0
101.06291 -20.990168 42.959492 0 0 0
100.87246 -20.990004 42.756496 0 0 0
100.66447 -21.013975 42.576366 0 0 0
100.44122 -21.02771 42.404366 0 0 0
100.38963 -20.780533 42.281193 0 0 0
101.39684 -21.160013 43.459484 0 0 0
101.23411 -21.265465 43.29113 0 0 0
101.07456 -21.247032 43.084286 0 0 0
100.89764 -21.248831 42.89212 0 0 0
100.70122 -21.261904 42.708786 0 0 0
100.48327 -21.27354 42.532322 0 0 0
101.27269 -21.451992 43.44635 0 0 0
101.09475 -21.481907 43.234688 0 0 0
100.90815 -21.503174 43.038982 0 0 0
100.73266 -21.513561 42.867817 0 0 0
100.51669 -21.519913 42.682835 0 0 0
100.2974 -21.51473 42.511417 0 0 0
100.25038 -21.263628 42.364307 0 0 0
101.09898 -21.707951 43.380463 0 0 0
100.94025 -21.698858 43.187836 0 0 0
100.74905 -21.799786 43.046959 0 0 0
100.57372 -21.732048 42.845577 0 0 0
100.35292 -21.796673 42.703316 0 0 0
101.26139 -21.68273 43.587524 0 0 0
101.0573 -21.932161 43.503441 0 0 0
100.88189 -21.928364 43.288277 0 0 0
100.52119 -21.968636 42.946148 0 0 0
100.28637 -22.088211 42.833611 0 0 0
99.955315 -21.886139 42.480324 0 0 0
101.23299 -21.892786 43.722515 0 0 0
100.0144 -22.231327 42.729996 0 0 0
99.834381 -22.087088 42.519855 0 0 0
99.726624 -21.895885 42.34042 0 0 0
99.928001 -21.692257 42.357342 0 0 0
100.03098 -21.470112 42.315449 0 0 0
99.821487 -22.41993 42.737221 0 0 0
99.536736 -22.113567 42.365868 0 0 0
99.524536 -21.8372 42.201008 0 0 0
99.756577 -21.620016 42.215954 0 0 0
99.868858 -21.127697 42.068993 0 0 0
100.22868 -20.995138 42.238731 0 0 0
99.576447 -22.524199 42.672207 0 0 0
99.43261 -22.381737 42.490765 0 0 0
99.259102 -22.253672 42.325775 0 0 0
99.305626 -22.009418 42.18409 0 0 0
99.303734 -21.74102 42.046909 0 0 0
99.533714 -21.560043 42.071686 0 0 0
99.16993 -22.509033 42.469517 0 0 0
98.980438 -22.379902 42.309372 0 0 0
99.040649 -22.142242 42.169678 0 0 0
99.070343 -21.890772 42.040043 0 0 0
99.06321 -21.6315 41.909821 0 0 0
99.285156 -21.484623 41.921532 0 0 0
98.910881 -22.611181 42.457462 0 0 0
98.694481 -22.489754 42.313732 0 0 0
98.764679 -22.259279 42.173584 0 0 0
98.816223 -22.019644 42.040329 0 0 0
98.843491 -21.770493 41.917194 0 0 0
98.650955 -22.687534 42.453728 0 0 0
98.41143 -22.631834 42.364643 0 0 0
98.488861 -22.373192 42.196918 0 0 0
98.550026 -22.121025 42.056973 0 0 0
97.945557 -22.882206 42.469753 0 0 0
98.135223 -22.676222 42.349281 0 0 0
98.231133 -22.449385 42.21682 0 0 0
98.290123 -22.194458 42.091595 0 0 0
98.03669 -23.054461 42.645317 0 0 0
97.74955 -23.037521 42.60339 0 0 0
97.640732 -22.832066 42.423153 0 0 0
97.866257 -22.706924 42.33577 0 0 0
97.958 -22.496017 42.217609 0 0 0
98.029869 -22.253428 42.127132 0 0 0
97.802475 -23.217234 42.796047 0 0 0
97.519623 -23.186829 42.767796 0 0 0
97.495132 -23.018158 42.5849 0 0 0
97.344879 -22.886072 42.479145 0 0 0
97.432701 -22.655661 42.324818 0 0 0
97.680412 -22.578505 42.262329 0 0 0
97.860374 -23.381121 43.005516 0 0 0
97.584618 -23.35862 42.973076 0 0 0
97.298363 -23.3036 42.925034 0 0 0
97.24469 -23.104807 42.706402 0 0 0
97.087402 -22.918789 42.548931 0 0 0
97.171982 -22.69561 42.390034 0 0 0
97.669594 -23.521971 43.188568 0 0 0
97.374123 -23.482672 43.141914 0 0 0
97.085663 -23.426645 43.111099 0 0 0
97.014145 -23.236801 42.893627 0 0 0
96.965378 -23.071999 42.71912 0 0 0
97.440804 -23.642403 43.35994 0 0 0
97.160728 -23.60326 43.334663 0 0 0
96.877365 -23.552004 43.3214 0 0 0
96.811661 -23.34729 43.069149 0 0 0
96.71328 -23.125435 42.830139 0 0 0
96.795845 -22.906755 42.598049 0 0 0
97.262596 -23.757895 43.561035 0 0 0
96.81678 -23.83387 43.78244 0 0 0
96.56221 -23.818817 43.832943 0 0 0
96.633499 -23.475136 43.29493 0 0 0
96.558128 -23.258638 43.042969 0 0 0
97.394035 -23.891397 43.779301 0 0 0
97.099365 -23.8675 43.774094 0 0 0
96.957085 -23.978497 44.01799 0 0 0
96.689507 -23.961851 44.060104 0 0 0
96.322945 -23.806837 43.924675 0 0 0
96.36097 -23.673931 43.69088 0 0 0
96.411964 -23.38319 43.253624 0 0 0
96.168083 -23.864563 44.13509 0 0 0
96.100838 -23.70458 43.871284 0 0 0
96.09066 -23.547716 43.623287 0 0 0
95.943726 -23.370052 43.44001 0 0 0
96.018547 -23.220531 43.207912 0 0 0
96.117249 -23.072954 43.0019 0 0 0
96.00946 -23.897039 44.320381 0 0 0
95.90052 -23.756668 44.103329 0 0 0
95.636787 -23.662992 44.11797 0 0 0
95.592575 -23.498133 43.858387 0 0 0
95.801903 -23.463129 43.659615 0 0 0
95.759293 -23.826941 44.374496 0 0 0
95.531067 -23.757898 44.429424 0 0 0
95.403374 -23.613939 44.229912 0 0 0
95.37896 -23.491182 44.015217 0 0 0
95.342667 -23.341061 43.7896 0 0 0
95.530106 -23.329533 43.628265 0 0 0
95.654495 -23.908852 44.678032 0 0 0
95.379112 -23.796192 44.693455 0 0 0
95.271248 -23.641148 44.436707 0 0 0
95.155373 -23.469822 44.189915 0 0 0
95.108704 -23.31698 43.947723 0 0 0
95.129219 -23.170788 43.722328 0 0 0
95.173599 -23.758785 44.930534 0 0 0
95.156616 -23.658094 44.655418 0 0 0
95.025276 -23.490221 44.41993 0 0 0
94.917625 -23.306643 44.145477 0 0 0
95.066048 -23.762646 45.214638 0 0 0
94.918694 -23.610189 44.973228 0 0 0
94.952377 -23.555645 44.720242 0 0 0
94.696503 -23.234001 44.286022 0 0 0
94.938828 -23.730576 45.480709 0 0 0
94.838486 -23.622696 45.234184 0 0 0
94.71122 -23.48391 45.046776 0 0 0
94.491821 -23.101143 44.3894 0 0 0
94.756889 -23.629173 45.679157 0 0 0
94.727814 -23.583385 45.44928 0 0 0
94.599754 -23.451809 45.281361 0 0 0
94.519089 -23.324789 45.053967 0 0 0
94.374512 -23.058916 44.595715 0 0 0
94.55986 -23.472795 45.804111 0 0 0
94.53437 -23.438618 45.550842 0 0 0
94.404655 -23.282099 45.352825 0 0 0
94.314537 -23.138258 45.104588 0 0 0
94.250244 -23.007893 44.858761 0 0 0
94.20266 -22.871634 44.57666 0 0 0
94.409462 -23.332941 45.953327 0 0 0
94.223412 -23.145859 45.926868 0 0 0
94.144691 -23.043266 45.682369 0 0 0
94.225204 -23.101778 45.394909 0 0 0
94.118164 -22.931644 45.130234 0 0 0
94.083427 -22.811464 44.834213 0 0 0
94.033394 -22.924551 45.949062 0 0 0
93.893723 -22.730621 45.504093 0 0 0
94.054016 -22.915668 45.436718 0 0 0
93.936287 -22.739653 45.260166 0 0 0
93.955688 -22.70467 45.023464 0 0 0
93.935364 -22.773182 46.434875 0 0 0
93.837944 -22.67606 45.970661 0 0 0
93.785461 -22.596649 45.686977 0 0 0
93.765305 -22.534122 45.399906 0 0 0
93.760521 -22.455626 46.833801 0 0 0
93.709763 -22.44174 46.554119 0 0 0
93.80677 -22.611971 46.282623 0 0 0
93.545959 -22.231676 46.217541 0 0 0
93.52108 -22.194212 45.705132 0 0 0
93.640457 -22.366327 45.548023 0 0 0
93.684669 -22.287001 47.040852 0 0 0
93.605583 -22.253754 46.759155 0 0 0
93.565788 -22.237448 46.496681 0 0 0
93.440704 -22.053162 46.380688 0 0 0
93.404404 -22.005816 46.149673 0 0 0
93.608047 -22.089779 47.23489 0 0 0
93.508911 -22.068586 46.916058 0 0 0
93.444992 -22.031092 46.626587 0 0 0
93.315239 -21.834923 46.397038 0 0 0
93.277977 -21.782042 46.06826 0 0 0
93.489311 -21.858681 47.278915 0 0 0
93.440231 -21.893454 47.040264 0 0 0
93.341362 -21.828402 46.731495 0 0 0
93.215187 -21.622297 46.533237 0 0 0
93.184456 -21.599953 46.229706 0 0 0
93.440277 -21.636341 47.447132 0 0 0
93.365852 -21.655226 47.202297 0 0 0
93.315559 -21.695044 46.958187 0 0 0
93.221222 -21.558903 46.804035 0 0 0
93.117126 -21.364721 46.672443 0 0 0
93.102554 -21.397821 46.389446 0 0 0
93.193314 -21.20973 47.21714 0 0 0
93.146729 -21.292515 46.929947 0 0 0
93.121078 -20.91106 47.32708 0 0 0
93.101532 -21.063673 47.066536 0 0 0
93.021835 -20.626333 47.236015 0 0 0
92.959167 -20.668098 46.951973 0 0 0
92.973274 -20.948418 46.523449 0 0 0
93.007706 -21.139688 46.297127 0 0 0
93.045509 -20.424471 47.442421 0 0 0
92.948143 -20.314594 47.175446 0 0 0
92.921265 -20.452888 46.978123 0 0 0
92.899094 -20.564919 46.687836 0 0 0
92.897499 -20.667727 46.427788 0 0 0
92.937363 -20.888836 46.277588 0 0 0
93.018349 -19.953682 47.507156 0 0 0
92.930244 -19.8221 47.260773 0 0 0
92.890526 -19.994741 47.07959 0 0 0
92.864517 -20.174982 46.905796 0 0 0
92.862747 -20.335487 46.7258 0 0 0
92.845436 -20.377565 46.470383 0 0 0
93.073509 -19.542261 47.724487 0 0 0
92.989525 -19.660728 47.47467 0 0 0
92.926537 -19.526569 47.260838 0 0 0
92.86792 -19.684456 47.000198 0 0 0
92.833244 -19.902252 46.801208 0 0 0
92.820732 -20.1173 46.602848 0 0 0
93.174309 -19.495775 47.984821 0 0 0
93.116875 -19.295998 47.812195 0 0 0
93.007851 -19.383913 47.525921 0 0 0
92.952087 -19.226099 47.313927 0 0 0
92.88607 -19.363092 47.063599 0 0 0
93.247368 -19.27302 48.117199 0 0 0
93.162598 -19.051041 47.855583 0 0 0
93.05143 -19.114086 47.580399 0 0 0
93.001076 -18.940969 47.349014 0 0 0
92.914001 -19.059793 47.085175 0 0 0
93.275856 -18.995541 48.101006 0 0 0
93.104767 -18.830866 47.612633 0 0 0
93.065475 -18.660376 47.378162 0 0 0
92.963158 -18.780424 47.102283 0 0 0
93.133293 -18.39431 47.370716 0 0 0
93.024727 -18.512384 47.113083 0 0 0
92.946686 -18.62109 46.840416 0 0 0
92.889938 -18.898251 46.83078 0 0 0
92.854935 -19.185064 46.831287 0 0 0
93.094414 -18.253054 47.105808 0 0 0
93.020248 -18.341272 46.857117 0 0 0
92.961952 -18.434031 46.606853 0 0 0
92.885727 -18.738653 46.571293 0 0 0
93.049713 -18.138828 46.62883 0 0 0
93.005257 -18.223759 46.377186 0 0 0
92.868423 -18.715288 46.304485 0 0 0
92.839676 -18.960279 46.35078 0 0 0
92.841309 -19.056387 46.586731 0 0 0
93.102501 -17.946415 46.415085 0 0 0
93.060905 -18.050024 46.146854 0 0 0
92.978668 -18.311602 46.104553 0 0 0
92.909058 -18.565128 46.073612 0 0 0
92.850662 -18.836283 46.090828 0 0 0
93.21669 -17.669016 46.46793 0 0 0
93.156349 -17.782125 46.195053 0 0 0
93.128922 -17.892439 45.926762 0 0 0
93.037666 -18.159088 45.865063 0 0 0
92.957848 -18.423899 45.829639 0 0 0
92.888573 -18.704515 45.83411 0 0 0
93.272987 -17.528166 46.216282 0 0 0
93.310593 -17.490095 45.770992 0 0 0
93.21151 -17.729021 45.718193 0 0 0
93.113876 -17.990364 45.658188 0 0 0
93.022957 -18.278868 45.588161 0 0 0
92.934311 -18.592707 45.599922 0 0 0
93.381569 -17.312504 46.234089 0 0 0
93.367027 -17.351984 45.955463 0 0 0
93.437767 -17.274763 45.646873 0 0 0
93.327354 -17.5208 45.534302 0 0 0
93.134483 -18.038914 45.401508 0 0 0
93.47287 -17.152248 46.093151 0 0 0
93.586105 -16.978312 45.94368 0 0 0
93.675636 -16.879436 45.720875 0 0 0
93.615631 -17.031948 45.492516 0 0 0
93.469872 -17.294283 45.393833 0 0 0
93.794884 -16.758564 45.531898 0 0 0
93.781082 -16.865694 45.259682 0 0 0
93.620079 -17.114277 45.224262 0 0 0
93.472031 -17.380148 45.15744 0 0 0
93.247238 -17.849207 45.194183 0 0 0
93.95015 -16.602715 45.37978 0 0 0
93.955147 -16.664732 45.156574 0 0 0
93.91806 -16.795248 44.958866 0 0 0
93.754982 -17.009138 44.988506 0 0 0
93.608261 -17.239216 44.965443 0 0 0
94.131554 -16.448685 45.209591 0 0 0
94.108658 -16.574972 44.955833 0 0 0
94.103821 -16.707235 44.717995 0 0 0
93.89917 -16.943502 44.728817 0 0 0
93.733269 -17.176607 44.734829 0 0 0
94.362305 -16.218796 45.228584 0 0 0
94.292091 -16.356386 45.031105 0 0 0
94.307587 -16.444445 44.812634 0 0 0
94.331734 -16.555292 44.574646 0 0 0
94.20237 -16.750261 44.469635 0 0 0
93.866402 -17.137728 44.497532 0 0 0
94.508217 -16.189747 44.979912 0 0 0
94.506073 -16.330299 44.676788 0 0 0
94.89502 -16.378771 43.994137 0 0 0
94.655327 -16.619598 43.970249 0 0 0
94.739563 -15.983873 45.016491 0 0 0
94.870071 -15.971429 44.796875 0 0 0
95.047653 -16.009687 44.427525 0 0 0
94.926643 -16.203888 44.25148 0 0 0
95.023346 -15.802675 44.95369 0 0 0
95.067772 -15.877075 44.684998 0 0 0
95.240685 -15.842883 44.504883 0 0 0
95.395241 -15.852383 44.276531 0 0 0
95.338173 -16.015242 44.029053 0 0 0
95.10479 -16.202148 43.9963 0 0 0
95.267258 -15.700678 44.806732 0 0 0
95.440933 -15.70992 44.535736 0 0 0
95.810867 -15.698522 44.120968 0 0 0
95.572502 -15.848014 44.077377 0 0 0
95.533768 -15.997827 43.843849 0 0 0
95.296547 -16.180794 43.792168 0 0 0
95.511108 -15.588589 44.745998 0 0 0
95.903557 -15.451092 44.616566 0 0 0
96.069878 -15.575021 44.15197 0 0 0
96.164551 -15.713154 43.791943 0 0 0
95.763924 -15.840137 43.893265 0 0 0
95.742371 -15.447906 44.83696 0 0 0
95.995026 -15.323986 44.881882 0 0 0
96.263229 -15.274703 44.705185 0 0 0
96.314751 -15.360695 44.433987 0 0 0
96.315193 -15.461274 44.193737 0 0 0
96.297829 -15.575525 43.963741 0 0 0
96.066826 -15.227049 45.149754 0 0 0
96.255798 -15.209557 44.950153 0 0 0
96.487587 -15.189281 44.767883 0 0 0
96.510605 -15.264683 44.519474 0 0 0
96.553116 -15.347604 44.276608 0 0 0
96.559814 -15.452607 44.049324 0 0 0
96.206177 -15.135347 45.401508 0 0 0
96.381332 -15.116673 45.180401 0 0 0
96.521629 -15.121636 44.988945 0 0 0
96.740196 -15.10611 44.846321 0 0 0
96.70565 -15.177373 44.615528 0 0 0
96.777496 -15.244135 44.393425 0 0 0
96.370331 -15.076838 45.592793 0 0 0
96.539894 -15.050496 45.391346 0 0 0
96.715691 -15.050835 45.143604 0 0 0
96.946587 -15.053327 44.919968 0 0 0
96.946632 -15.142932 44.59697 0 0 0
97.209816 -15.008678 44.968102 0 0 0
97.144325 -15.076119 44.72583 0 0 0
97.217346 -15.145945 44.478756 0 0 0
97.033371 -15.24005 44.295452 0 0 0
96.820915 -15.338335 44.144596 0 0 0
97.394569 -15.0563 44.713688 0 0 0
97.475906 -15.151987 44.408443 0 0 0
97.308617 -15.243163 44.205147 0 0 0
97.092567 -15.352469 44.019024 0 0 0
97.665611 -15.017458 44.836079 0 0 0
97.622345 -15.080616 44.606243 0 0 0
97.750565 -15.1464 44.409088 0 0 0
97.616447 -15.258799 44.152603 0 0 0
97.408836 -15.349336 43.969196 0 0 0
97.876892 -15.071055 44.678627 0 0 0
98.051765 -15.145782 44.474857 0 0 0
98.162376 -15.24555 44.24667 0 0 0
98.144127 -15.371914 43.953266 0 0 0
97.932487 -15.443151 43.776886 0 0 0
97.675537 -15.39021 43.873993 0 0 0
98.131088 -15.080249 44.729752 0 0 0
98.337158 -15.162833 44.532806 0 0 0
98.43589 -15.263285 44.300045 0 0 0
98.33654 -15.335583 44.089283 0 0 0
98.413704 -15.454081 43.86956 0 0 0
98.198288 -15.503845 43.707012 0 0 0
98.690887 -15.327034 44.263016 0 0 0
98.579483 -15.393787 44.055859 0 0 0
98.695297 -15.527469 43.841473 0 0 0
98.475212 -15.575752 43.661766 0 0 0
98.260452 -15.640426 43.485325 0 0 0
97.991234 -15.587342 43.530403 0 0 0
98.829109 -15.438942 44.087013 0 0 0
98.977173 -15.567425 43.904793 0 0 0
98.905876 -15.652872 43.712784 0 0 0
98.729607 -15.673714 43.595478 0 0 0
98.527512 -15.713012 43.452465 0 0 0
99.068016 -15.486858 44.134762 0 0 0
99.232887 -15.64383 43.934311 0 0 0
99.147621 -15.740624 43.705395 0 0 0
99.004295 -15.815084 43.511803 0 0 0
98.800545 -15.836477 43.382545 0 0 0
99.270676 -15.92184 43.495758 0 0 0
99.043312 -15.977262 43.296436 0 0 0
98.769127 -15.978444 43.174019 0 0 0
98.47657 -15.949789 43.10244 0 0 0
98.334755 -15.790802 43.278301 0 0 0
99.312477 -16.099606 43.280247 0 0 0
99.137253 -16.150036 43.119999 0 0 0
98.918465 -16.127287 43.048176 0 0 0
98.657372 -16.107611 42.968475 0 0 0
98.362534 -16.065392 42.926811 0 0 0
98.190331 -15.907916 43.089157 0 0 0
99.330971 -16.293575 43.047146 0 0 0
99.083557 -16.314703 42.90456 0 0 0
98.836761 -16.288368 42.823105 0 0 0
98.566895 -16.241274 42.7808 0 0 0
98.296471 -16.194342 42.75803 0 0 0
98.056343 -16.042906 42.893566 0 0 0
99.534294 -16.463142 42.990364 0 0 0
99.281189 -16.478886 42.838459 0 0 0
99.008575 -16.495564 42.695812 0 0 0
98.728897 -16.440422 42.635769 0 0 0
98.465691 -16.389071 42.602131 0 0 0
99.505203 -16.654793 42.792152 0 0 0
99.255569 -16.663368 42.65506 0 0 0
99.045349 -16.708803 42.516827 0 0 0
98.829758 -16.651394 42.482548 0 0 0
98.569 -16.587006 42.450989 0 0 0
99.413605 -17.044605 42.41898 0 0 0
99.214783 -16.875195 42.455853 0 0 0
98.945541 -16.897747 42.3256 0 0 0
98.666084 -16.805315 42.306423 0 0 0
98.389862 -16.730215 42.296799 0 0 0
98.291115 -16.523302 42.445042 0 0 0
99.811829 -17.296989 42.464275 0 0 0
99.409584 -17.277571 42.25444 0 0 0
99.182732 -17.08251 42.282482 0 0 0
98.973083 -17.145567 42.157185 0 0 0
98.731865 -17.019766 42.164497 0 0 0
98.47113 -16.955641 42.146492 0 0 0
99.664467 -17.459223 42.273991 0 0 0
99.446838 -17.515675 42.122093 0 0 0
99.191711 -17.326984 42.124557 0 0 0
98.948853 -17.411648 41.994183 0 0 0
98.771172 -17.244898 42.035328 0 0 0
98.53347 -17.206816 41.998028 0 0 0
99.700577 -17.72043 42.149487 0 0 0
99.428604 -17.731432 42.007267 0 0 0
99.168533 -17.556637 41.990368 0 0 0
98.886818 -17.663591 41.845497 0 0 0
98.672783 -17.450897 41.896969 0 0 0
99.952415 -17.842703 42.23143 0 0 0
99.828308 -18.017647 42.075901 0 0 0
99.587654 -17.953047 41.977394 0 0 0
99.323784 -17.938705 41.869392 0 0 0
99.153412 -17.750124 41.891415 0 0 0
100.20227 -17.963482 42.3372 0 0 0
100.07673 -18.144043 42.175594 0 0 0
99.948959 -18.318951 42.03381 0 0 0
99.695808 -18.221544 41.924122 0 0 0
99.439133 -18.176682 41.823639 0 0 0
100.2988 -18.218071 42.300488 0 0 0
100.20556 -18.446413 42.154549 0 0 0
100.0153 -18.596502 41.986343 0 0 0
99.785378 -18.487709 41.881668 0 0 0
99.524857 -18.413754 41.777981 0 0 0
100.22791 -18.741322 42.082176 0 0 0
100.03015 -18.874481 41.928215 0 0 0
99.809517 -18.781216 41.823975 0 0 0
99.620735 -18.669767 41.754829 0 0 0
99.405296 -18.654854 41.669476 0 0 0
99.239159 -18.366158 41.679066 0 0 0
100.23514 -19.034559 42.03355 0 0 0
100.04253 -19.132977 41.902447 0 0 0
99.820602 -19.054491 41.794777 0 0 0
99.557892 -18.947901 41.683208 0 0 0
99.28035 -18.89292 41.588409 0 0 0
99.17382 -18.60998 41.601151 0 0 0
99.937729 -19.345789 41.832733 0 0 0
99.642586 -19.229746 41.697899 0 0 0
99.359276 -19.190943 41.594345 0 0 0
98.945679 -18.434963 41.583668 0 0 0
99.936943 -19.633253 41.829628 0 0 0
99.743668 -19.471455 41.732506 0 0 0
99.495499 -19.478048 41.627541 0 0 0
99.245193 -19.511501 41.553196 0 0 0
100.12284 -19.836842 41.949352 0 0 0
99.879158 -20.108566 41.826447 0 0 0
99.657738 -19.945827 41.705235 0 0 0
99.408714 -19.776777 41.603767 0 0 0
99.107712 -19.775198 41.529346 0 0 0
100.30204 -20.012684 42.072163 0 0 0
99.951782 -20.348295 41.893013 0 0 0
99.70787 -20.224171 41.754662 0 0 0
99.477783 -20.077648 41.641014 0 0 0
99.231987 -20.004995 41.557697 0 0 0
100.15273 -20.426291 42.029102 0 0 0
99.974754 -20.636745 41.972183 0 0 0
99.767021 -20.48243 41.822117 0 0 0
99.538773 -20.368824 41.704216 0 0 0
99.327972 -20.276386 41.611065 0 0 0
100.18719 -20.710155 42.119785 0 0 0
100.03654 -20.919802 42.087425 0 0 0
99.83284 -20.897261 41.962498 0 0 0
99.764359 -20.705494 41.873833 0 0 0
99.568871 -20.634081 41.762577 0 0 0
99.368126 -20.55098 41.667976 0 0 0
99.667526 -21.138006 41.961941 0 0 0
99.435181 -21.076469 41.833191 0 0 0
99.395592 -20.819994 41.736843 0 0 0
99.186394 -20.730766 41.643826 0 0 0
99.158401 -20.469582 41.585083 0 0 0
99.107399 -20.225899 41.547195 0 0 0
99.202423 -20.985806 41.710636 0 0 0
99.241539 -21.235531 41.811142 0 0 0
99.503029 -21.322805 41.95327 0 0 0
98.680664 -18.247805 41.599579 0 0 0
98.95768 -18.178396 41.662853 0 0 0
99.197464 -18.125277 41.749928 0 0 0
98.511337 -17.954748 41.666279 0 0 0
98.768906 -17.935522 41.704395 0 0 0
99.022812 -17.917912 41.776161 0 0 0
98.590187 -17.674047 41.776638 0 0 0
98.292908 -17.134266 42.000793 0 0 0
98.214203 -16.873024 42.157761 0 0 0
98.112762 -16.641958 42.322559 0 0 0
98.042564 -17.026747 42.042564 0 0 0
97.944588 -16.786995 42.200005 0 0 0
97.846443 -16.578362 42.354992 0 0 0
98.007385 -16.415689 42.505062 0 0 0
98.225052 -16.353804 42.584808 0 0 0
97.803429 -16.93104 42.092823 0 0 0
97.651871 -16.75209 42.214943 0 0 0
97.599037 -16.536922 42.382381 0 0 0
97.75235 -16.358095 42.54245 0 0 0
98.071373 -16.225918 42.697685 0 0 0
97.38887 -16.657892 42.298908 0 0 0
97.342888 -16.4744 42.45092 0 0 0
97.533943 -16.343254 42.555141 0 0 0
97.586914 -16.160429 42.744034 0 0 0
97.764 -16.005692 42.922333 0 0 0
97.91906 -15.868369 43.108513 0 0 0
97.186699 -16.762127 42.244507 0 0 0
97.088966 -16.586967 42.390488 0 0 0
97.142189 -16.403479 42.536884 0 0 0
97.340965 -16.267836 42.641453 0 0 0
97.299057 -16.111353 42.812294 0 0 0
97.497406 -15.977546 42.957218 0 0 0
96.945518 -16.790773 42.272789 0 0 0
96.798615 -16.624002 42.423004 0 0 0
96.905937 -16.431694 42.562298 0 0 0
97.068169 -16.248917 42.698193 0 0 0
96.999565 -16.105072 42.868992 0 0 0
97.220085 -15.962297 42.990097 0 0 0
96.680893 -16.860859 42.303558 0 0 0
96.544411 -16.687159 42.461121 0 0 0
96.64238 -16.453274 42.620346 0 0 0
96.782219 -16.265591 42.751045 0 0 0
96.719452 -16.108612 42.940422 0 0 0
96.938377 -15.953802 43.057045 0 0 0
96.331032 -16.730963 42.510921 0 0 0
96.397362 -16.506638 42.667824 0 0 0
96.492096 -16.29237 42.836128 0 0 0
96.491722 -16.097532 43.047661 0 0 0
96.707001 -15.926755 43.167805 0 0 0
96.14592 -16.624168 42.676544 0 0 0
96.202896 -16.410383 42.846321 0 0 0
96.23571 -16.229204 43.01717 0 0 0
96.272514 -16.071039 43.183296 0 0 0
95.933899 -16.770872 42.682854 0 0 0
95.941238 -16.545553 42.861561 0 0 0
95.972229 -16.344444 43.042213 0 0 0
96.011719 -16.14621 43.240227 0 0 0
96.208069 -15.956126 43.36348 0 0 0
95.716148 -16.69742 42.876461 0 0 0
95.70932 -16.490021 43.062611 0 0 0
95.74823 -16.303593 43.228985 0 0 0
95.773598 -16.126131 43.425842 0 0 0
95.97332 -15.982583 43.479229 0 0 0
95.490601 -16.648802 43.072231 0 0 0
95.454903 -16.457794 43.285446 0 0 0
95.552917 -16.270285 43.408638 0 0 0
95.526627 -16.13645 43.619438 0 0 0
95.747414 -15.980735 43.658501 0 0 0
95.261238 -16.649364 43.252312 0 0 0
95.166962 -16.520441 43.477272 0 0 0
95.318207 -16.32695 43.550983 0 0 0
95.000893 -16.747627 43.402275 0 0 0
94.897568 -16.655037 43.613792 0 0 0
95.072243 -16.390003 43.738304 0 0 0
94.824188 -16.572199 43.801849 0 0 0
94.750275 -16.905825 43.509693 0 0 0
94.616974 -16.83308 43.751923 0 0 0
94.528282 -17.105663 43.582951 0 0 0
94.383904 -17.07402 43.796928 0 0 0
94.425949 -16.841007 44.003765 0 0 0
94.302017 -17.369713 43.613426 0 0 0
94.170959 -17.324203 43.824131 0 0 0
94.213219 -17.079708 44.018478 0 0 0
94.219315 -16.904928 44.229843 0 0 0
94.083572 -17.628828 43.665981 0 0 0
93.857155 -17.734064 43.881287 0 0 0
94.011841 -17.307219 44.064526 0 0 0
94.029488 -17.112272 44.258522 0 0 0
93.884331 -17.922131 43.687054 0 0 0
93.724686 -17.97142 43.888 0 0 0
93.659882 -17.844984 44.111549 0 0 0
93.822212 -17.564592 44.09668 0 0 0
93.846901 -17.345079 44.286739 0 0 0
93.708611 -17.38092 44.514317 0 0 0
93.57476 -18.160704 43.990417 0 0 0
93.482307 -18.092316 44.219971 0 0 0
93.535408 -17.836197 44.361923 0 0 0
93.683693 -17.604574 44.310432 0 0 0
93.55291 -17.627607 44.552094 0 0 0
93.585587 -17.421457 44.736263 0 0 0
93.428627 -18.379326 44.111752 0 0 0
93.327545 -18.300781 44.38966 0 0 0
93.400703 -18.05076 44.45023 0 0 0
93.406029 -17.868382 44.63776 0 0 0
93.31163 -18.590052 44.24295 0 0 0
