ply
format ascii 1.0
comment PCL generated
element vertex 66
property float x
property float y
property float z
property uchar red
property uchar green
property uchar blue
element camera 1
property float view_px
property float view_py
property float view_pz
property float x_axisx
property float x_axisy
property float x_axisz
property float y_axisx
property float y_axisy
property float y_axisz
property float z_axisx
property float z_axisy
property float z_axisz
property float focal
property float scalex
property float scaley
property float centerx
property float centery
property int viewportx
property int viewporty
property float k1
property float k2
end_header
681.50684 354.98276 79.690796 0 0 0
682.24591 357.35721 81.629425 0 0 0
683.0412 357.76282 81.262833 0 0 0
687.84119 355.18716 78.229416 0 0 0
682.44122 357.2598 81.229416 0 0 0
683.0412 357.22894 80.629425 0 0 0
682.44122 357.16284 81.112946 0 0 0
682.33325 357.16284 81.229416 0 0 0
683.0412 357.16284 80.557739 0 0 0
682.95209 357.16284 80.629425 0 0 0
682.93915 356.56284 80.029419 0 0 0
682.2475 356.56284 80.629425 0 0 0
684.5412 351.46283 78.183334 0 0 0
683.64117 352.36282 77.841232 0 0 0
681.12872 353.56284 80.329422 0 0 0
688.44122 357.83215 82.729416 0 0 0
688.49237 357.76282 82.729416 0 0 0
688.68701 357.46283 82.729416 0 0 0
688.44122 357.76282 82.793365 0 0 0
684.5412 359.20764 82.729416 0 0 0
681.24121 354.80777 79.729416 0 0 0
681.0191 354.76282 80.029419 0 0 0
681.24121 354.76282 79.681076 0 0 0
681.1955 354.76282 79.729416 0 0 0
681.00708 354.46283 79.729416 0 0 0
685.74121 350.97037 79.729416 0 0 0
688.44122 358.19366 82.129425 0 0 0
688.69293 357.76282 82.429413 0 0 0
687.24121 358.85181 81.829422 0 0 0
681.65973 353.86282 82.429413 0 0 0
685.44122 356.86282 84.541306 0 0 0
686.64117 354.46283 84.326111 0 0 0
684.84119 355.36282 84.664093 0 0 0
689.64117 354.71191 79.429413 0 0 0
688.99353 352.96283 79.129425 0 0 0
688.34204 352.06284 79.429413 0 0 0
683.34119 351.46283 79.412857 0 0 0
681.5412 354.16284 79.022552 0 0 0
682.50671 352.06284 79.129425 0 0 0
687.84119 374.9158 81.829422 0 0 0
688.44122 358.16583 81.229416 0 0 0
689.56415 356.56284 81.829422 0 0 0
688.4892 352.66284 81.829422 0 0 0
684.84119 351.34616 81.829422 0 0 0
681.08813 355.96283 81.529419 0 0 0
682.62054 352.06284 81.529419 0 0 0
688.14117 355.06284 83.715897 0 0 0
686.0412 351.49692 78.229416 0 0 0
684.24121 351.29852 78.829422 0 0 0
683.94122 351.46283 78.607941 0 0 0
683.94122 351.49219 78.529419 0 0 0
683.94122 351.61874 78.229416 0 0 0
684.01569 351.46283 78.529419 0 0 0
683.64117 351.6131 78.529419 0 0 0
689.72711 354.16284 80.929413 0 0 0
686.94122 351.37515 81.229416 0 0 0
681.24121 355.5824 80.629425 0 0 0
688.14117 357.84421 83.029419 0 0 0
688.41663 356.86282 83.329422 0 0 0
686.64117 358.69202 83.329422 0 0 0
683.64117 358.23413 83.629425 0 0 0
682.14117 357.39001 83.029419 0 0 0
687.24121 352.96283 83.33342 0 0 0
684.5412 352.36282 83.300079 0 0 0
682.27209 355.36282 83.629425 0 0 0
682.74121 353.97778 83.629425 0 0 0
0 0 0 1 0 0 0 1 0 0 0 1 0 0 0 0 0 66 1 0 0
