ply
format ascii 1.0
comment PCL generated
element vertex 62
property float x
property float y
property float z
property uchar red
property uchar green
property uchar blue
element camera 1
property float view_px
property float view_py
property float view_pz
property float x_axisx
property float x_axisy
property float x_axisz
property float y_axisx
property float y_axisy
property float y_axisz
property float z_axisx
property float z_axisy
property float z_axisz
property float focal
property float scalex
property float scaley
property float centerx
property float centery
property int viewportx
property int viewporty
property float k1
property float k2
end_header
806.05829 -174.01231 -368.78308 0 0 0
796.20483 -167.83719 -369.37061 0 0 0
797.3363 -165.43719 -368.7706 0 0 0
797.28204 -166.03719 -368.17059 0 0 0
806.82788 -170.83719 -367.57062 0 0 0
802.14124 -177.36464 -366.07062 0 0 0
798.5412 -166.93719 -361.71051 0 0 0
805.14124 -172.63719 -362.15314 0 0 0
796.44122 -169.63719 -361.81311 0 0 0
807.08527 -171.73718 -364.2706 0 0 0
794.81714 -168.43719 -364.2706 0 0 0
794.39709 -168.13719 -366.67059 0 0 0
805.44122 -175.33719 -368.81219 0 0 0
804.84119 -175.48305 -369.37061 0 0 0
804.94495 -175.33719 -369.37061 0 0 0
801.5412 -170.83719 -360.285 0 0 0
804.99408 -175.63719 -369.07062 0 0 0
799.74121 -170.23718 -360.31714 0 0 0
800.34119 -171.73718 -360.34137 0 0 0
804.5412 -174.43719 -362.76187 0 0 0
799.14124 -175.10364 -362.17059 0 0 0
796.74121 -173.53719 -362.37811 0 0 0
804.84119 -160.87741 -369.37061 0 0 0
805.44122 -161.23718 -369.94913 0 0 0
807.05603 -173.83719 -366.97058 0 0 0
800.64124 -167.83719 -360.81897 0 0 0
802.44122 -172.63719 -360.7287 0 0 0
806.34119 -169.33719 -363.13519 0 0 0
805.12067 -174.13719 -363.07062 0 0 0
804.87488 -174.43719 -363.07062 0 0 0
804.84119 -174.43719 -363.03726 0 0 0
804.84119 -174.47461 -363.07062 0 0 0
801.5412 -176.15289 -363.07062 0 0 0
805.45593 -161.23718 -369.97058 0 0 0
805.44122 -161.21303 -369.97058 0 0 0
802.18799 -160.03719 -367.87061 0 0 0
795.37903 -166.63719 -365.47058 0 0 0
806.64124 -174.27789 -367.87061 0 0 0
806.63367 -174.43719 -367.57062 0 0 0
806.54321 -174.43719 -367.87061 0 0 0
805.44122 -175.88638 -367.57062 0 0 0
794.24438 -169.33719 -365.17059 0 0 0
794.53516 -172.93719 -365.17059 0 0 0
796.4303 -175.63719 -365.17059 0 0 0
802.44122 -166.93719 -361.51221 0 0 0
803.94122 -169.33719 -361.12347 0 0 0
800.0412 -177.3159 -365.47058 0 0 0
800.64124 -174.13719 -361.21973 0 0 0
797.64124 -172.93719 -361.45596 0 0 0
806.49805 -162.43719 -371.17059 0 0 0
796.14124 -167.12753 -363.37061 0 0 0
805.6532 -174.13719 -363.67059 0 0 0
805.14124 -174.45541 -363.37061 0 0 0
804.83698 -175.03719 -363.67059 0 0 0
799.74121 -176.6712 -363.97058 0 0 0
795.15582 -172.03719 -363.37061 0 0 0
797.94122 -175.87408 -363.67059 0 0 0
806.34119 -174.43719 -368.3374 0 0 0
806.0412 -174.73718 -368.58527 0 0 0
807.63086 -171.13719 -366.37061 0 0 0
807.02899 -173.53719 -365.7706 0 0 0
804.84119 -176.13953 -365.7706 0 0 0
0 0 0 1 0 0 0 1 0 0 0 1 0 0 0 0 0 62 1 0 0
