ply
format ascii 1.0
comment PCL generated
element vertex 139
property float x
property float y
property float z
property uchar red
property uchar green
property uchar blue
element camera 1
property float view_px
property float view_py
property float view_pz
property float x_axisx
property float x_axisy
property float x_axisz
property float y_axisx
property float y_axisy
property float y_axisz
property float z_axisx
property float z_axisy
property float z_axisz
property float focal
property float scalex
property float scaley
property float centerx
property float centery
property int viewportx
property int viewporty
property float k1
property float k2
end_header
-144.65881 -311.23718 -193.87125 0 0 0
-147.35883 -309.43719 -188.81902 0 0 0
-156.65881 -311.23718 -189.78636 0 0 0
-147.35883 -310.0372 -195.34976 0 0 0
-147.35883 -310.05902 -195.37059 0 0 0
-151.22247 -306.9418 -192.06607 0 0 0
-150.9588 -307.0372 -192.34344 0 0 0
-148.55884 -307.63721 -192.61246 0 0 0
-150.9588 -307.04575 -192.37059 0 0 0
-151.04077 -307.0372 -192.37059 0 0 0
-150.9588 -307.2041 -192.9706 0 0 0
-152.15881 -307.12949 -192.9706 0 0 0
-146.75885 -310.0372 -194.80058 0 0 0
-147.37708 -310.0372 -195.37059 0 0 0
-144.9588 -314.23718 -195.18948 0 0 0
-148.85883 -310.63721 -187.18839 0 0 0
-150.9588 -309.73718 -187.27692 0 0 0
-150.9588 -317.83719 -187.52835 0 0 0
-147.05884 -308.83719 -189.87527 0 0 0
-146.75885 -309.13721 -189.88744 0 0 0
-146.4588 -309.43719 -189.87964 0 0 0
-146.75885 -308.23718 -192.2173 0 0 0
-146.75885 -308.26837 -192.07059 0 0 0
-146.80768 -308.23718 -192.07059 0 0 0
-149.15131 -307.93719 -189.67059 0 0 0
-149.4588 -307.93719 -189.52487 0 0 0
-149.4588 -307.88028 -189.67059 0 0 0
-147.9588 -307.63721 -191.79945 0 0 0
-154.25885 -308.5372 -189.67696 0 0 0
-153.9588 -307.24991 -192.07059 0 0 0
-145.5744 -316.33719 -189.67059 0 0 0
-157.1817 -310.63721 -192.07059 0 0 0
-157.25885 -310.82568 -192.07059 0 0 0
-149.15881 -319.41348 -189.67059 0 0 0
-155.75885 -317.5372 -189.74525 0 0 0
-144.57593 -315.13721 -194.4706 0 0 0
-144.72003 -315.43719 -194.4706 0 0 0
-187.25885 -328.33719 -204.11276 0 0 0
-154.55884 -310.33719 -187.97401 0 0 0
-147.05884 -311.24561 -187.87059 0 0 0
-146.67169 -315.13721 -187.87059 0 0 0
-155.4588 -312.13721 -187.78862 0 0 0
-148.55884 -317.23718 -187.66991 0 0 0
-154.55884 -316.33719 -187.70853 0 0 0
-147.2016 -308.5372 -190.2706 0 0 0
-146.69299 -309.13721 -189.9706 0 0 0
-146.75885 -309.07159 -189.9706 0 0 0
-146.75885 -308.88785 -190.2706 0 0 0
-148.25885 -308.08511 -189.9706 0 0 0
-144.88586 -312.43719 -189.9706 0 0 0
-149.75885 -319.82602 -190.2706 0 0 0
-147.05884 -308.07028 -192.67059 0 0 0
-144.08038 -313.93719 -192.67059 0 0 0
-144.35883 -315.56693 -192.67059 0 0 0
-187.55884 -329.21347 -204.67059 0 0 0
-186.9588 -329.23718 -204.96837 0 0 0
-150.65881 -312.73718 -186.14706 0 0 0
-149.4588 -313.63721 -186.26718 0 0 0
-150.9588 -315.43719 -186.32642 0 0 0
-152.75885 -313.33719 -186.28864 0 0 0
-154.25885 -309.73718 -188.2207 0 0 0
-154.55884 -309.73718 -188.44193 0 0 0
-154.55884 -309.70541 -188.4706 0 0 0
-154.59613 -309.73718 -188.4706 0 0 0
-154.85883 -309.97537 -188.4706 0 0 0
-154.55884 -310.06583 -188.17059 0 0 0
-154.85883 -310.0372 -188.41833 0 0 0
-154.83057 -310.33719 -188.17059 0 0 0
-154.92175 -310.0372 -188.4706 0 0 0
-155.15881 -310.33719 -188.44342 0 0 0
-155.15881 -310.30051 -188.4706 0 0 0
-155.18878 -310.33719 -188.4706 0 0 0
-155.15881 -310.63721 -188.24799 0 0 0
-155.75885 -315.43719 -188.24615 0 0 0
-154.85883 -317.23718 -188.51532 0 0 0
-154.55884 -317.5372 -188.50713 0 0 0
-154.85883 -317.5372 -188.74623 0 0 0
-145.25885 -310.56339 -190.57059 0 0 0
-150.19653 -307.0372 -190.87059 0 0 0
-151.55884 -307.0372 -190.76834 0 0 0
-156.65881 -310.0372 -191.07069 0 0 0
-157.57324 -313.63721 -190.57059 0 0 0
-157.25885 -316.0372 -190.91533 0 0 0
-145.85883 -309.13721 -193.19165 0 0 0
-187.55884 -329.51077 -204.9706 0 0 0
-187.55884 -329.5372 -204.99734 0 0 0
-187.6048 -329.5372 -204.9706 0 0 0
-187.85883 -329.7092 -204.9706 0 0 0
-187.85883 -329.83719 -205.06851 0 0 0
-188.03479 -329.83719 -204.9706 0 0 0
-144.40326 -311.5372 -193.2706 0 0 0
-144.35883 -315.41525 -193.2706 0 0 0
-144.35883 -315.43719 -193.21489 0 0 0
-144.36639 -315.43719 -193.2706 0 0 0
-144.45477 -315.73718 -193.2706 0 0 0
-144.54706 -316.0372 -193.2706 0 0 0
-152.75885 -310.67682 -186.9706 0 0 0
-147.9588 -313.0372 -186.83243 0 0 0
-154.25885 -314.23718 -186.88275 0 0 0
-152.4588 -308.23718 -189.089 0 0 0
-154.55884 -309.43719 -188.79112 0 0 0
-155.20093 -310.0372 -188.7706 0 0 0
-155.4588 -310.33298 -188.7706 0 0 0
-155.75885 -310.19907 -189.37059 0 0 0
-154.85883 -317.56384 -188.7706 0 0 0
-154.88593 -317.5372 -188.7706 0 0 0
-155.15881 -317.5372 -189.03069 0 0 0
-154.85883 -317.83719 -189.03464 0 0 0
-154.55884 -318.10016 -189.07059 0 0 0
-154.85883 -317.8699 -189.07059 0 0 0
-154.89539 -317.83719 -189.07059 0 0 0
-154.55884 -318.13721 -189.12029 0 0 0
-152.15881 -319.23523 -189.07059 0 0 0
-145.85883 -309.35168 -191.17059 0 0 0
-146.34985 -308.83719 -191.17059 0 0 0
-156.65881 -309.97797 -191.17059 0 0 0
-156.7002 -310.0372 -191.17059 0 0 0
-156.8056 -310.0372 -191.4706 0 0 0
-157.16309 -310.63721 -191.7706 0 0 0
-144.47894 -311.83719 -191.4706 0 0 0
-145.07581 -316.63721 -191.17059 0 0 0
-146.4588 -318.43719 -191.19556 0 0 0
-145.05847 -310.33719 -193.57059 0 0 0
-145.55884 -310.0372 -193.90807 0 0 0
-145.25885 -310.31485 -193.87059 0 0 0
-145.23975 -310.33719 -193.87059 0 0 0
-145.25885 -310.33719 -193.89574 0 0 0
-145.00787 -310.63721 -193.87059 0 0 0
-145.24072 -310.63721 -194.17059 0 0 0
-144.35883 -312.13721 -193.80115 0 0 0
-144.46741 -311.83719 -193.87059 0 0 0
-144.35883 -312.21323 -193.87059 0 0 0
-144.38 -312.13721 -193.87059 0 0 0
-144.47345 -312.13721 -194.17059 0 0 0
-144.23657 -312.43719 -193.57059 0 0 0
-144.41638 -312.43719 -194.17059 0 0 0
-144.25354 -313.93719 -194.17059 0 0 0
-144.42548 -315.13721 -194.17059 0 0 0
-144.4967 -315.73718 -193.57059 0 0 0
0 0 0 1 0 0 0 1 0 0 0 1 0 0 0 0 0 139 1 0 0
