ply
format ascii 1.0
comment PCL generated
element vertex 78
property float x
property float y
property float z
property uchar red
property uchar green
property uchar blue
element camera 1
property float view_px
property float view_py
property float view_pz
property float x_axisx
property float x_axisy
property float x_axisz
property float y_axisx
property float y_axisy
property float y_axisz
property float z_axisx
property float z_axisy
property float z_axisz
property float focal
property float scalex
property float scaley
property float centerx
property float centery
property int viewportx
property int viewporty
property float k1
property float k2
end_header
-867.35883 -416.83719 -43.980637 0 0 0
-869.75885 -417.22769 -43.570587 0 0 0
-865.3327 -412.41632 -42.522041 0 0 0
-871.97137 -412.28085 -40.869751 0 0 0
-872.23004 -412.918 -40.85421 0 0 0
-865.8266 -411.7272 -42.080536 0 0 0
-872.15887 -412.63721 -41.072311 0 0 0
-865.07379 -413.23721 -42.970589 0 0 0
-870.9588 -418.0372 -41.118843 0 0 0
-865.78107 -414.43719 -44.170586 0 0 0
-866.75885 -419.16245 -41.170586 0 0 0
-870.4826 -417.43719 -42.370583 0 0 0
-869.75885 -418.63721 -41.72023 0 0 0
-870.35883 -418.0372 -41.842712 0 0 0
-870.35883 -418.10794 -41.770584 0 0 0
-870.42743 -418.0372 -41.770584 0 0 0
-864.0589 -417.43719 -40.793182 0 0 0
-864.20026 -414.13721 -38.470589 0 0 0
-870.65887 -411.96689 -38.470589 0 0 0
-870.35883 -412.0372 -38.250473 0 0 0
-870.65887 -412.0372 -38.408905 0 0 0
-870.74652 -412.0372 -38.470589 0 0 0
-866.75885 -414.13721 -36.352882 0 0 0
-867.0589 -416.5372 -36.266106 0 0 0
-868.85883 -414.43719 -36.108192 0 0 0
-868.85883 -416.83719 -36.274361 0 0 0
-865.5589 -411.24655 -41.170586 0 0 0
-872.15887 -412.51566 -41.170586 0 0 0
-872.19208 -412.63721 -41.170586 0 0 0
-872.28412 -412.33719 -41.470589 0 0 0
-910.85883 -422.79083 -41.170586 0 0 0
-865.5589 -411.84088 -38.770584 0 0 0
-870.35883 -411.32999 -39.070587 0 0 0
-870.9588 -411.94098 -38.770584 0 0 0
-871.5589 -412.58157 -38.770584 0 0 0
-872.58026 -416.23721 -39.070587 0 0 0
-864.02863 -416.83719 -39.070587 0 0 0
-868.5589 -419.61462 -38.770584 0 0 0
-869.47882 -413.23721 -36.670586 0 0 0
-867.27545 -410.83719 -41.770584 0 0 0
-863.73468 -413.5372 -42.070587 0 0 0
-910.5589 -423.95544 -42.070587 0 0 0
-910.85883 -424.02701 -42.070587 0 0 0
-911.15887 -424.0372 -42.034378 0 0 0
-910.5589 -424.0372 -42.131256 0 0 0
-911.15887 -424.08246 -42.070587 0 0 0
-910.91986 -424.0372 -42.070587 0 0 0
-864.40045 -412.63721 -39.670586 0 0 0
-867.35883 -410.66516 -39.670586 0 0 0
-869.75055 -410.83719 -39.670586 0 0 0
-872.72784 -414.43719 -39.670586 0 0 0
-866.75885 -419.59116 -39.370583 0 0 0
-870.35883 -419.25238 -39.370583 0 0 0
-865.07245 -414.43719 -37.270584 0 0 0
-865.25885 -416.23721 -37.109367 0 0 0
-867.65887 -412.0372 -37.332245 0 0 0
-870.35883 -412.63721 -37.552094 0 0 0
-870.65887 -412.93719 -37.509979 0 0 0
-871.08246 -415.0372 -36.970589 0 0 0
-865.85883 -417.13721 -36.988251 0 0 0
-868.5589 -418.19806 -36.970589 0 0 0
-865.85883 -412.0372 -42.615097 0 0 0
-865.5589 -412.33719 -42.623001 0 0 0
-865.5589 -412.37796 -42.670586 0 0 0
-865.60028 -412.33719 -42.670586 0 0 0
-865.77277 -412.33719 -42.970589 0 0 0
-864.0589 -415.0372 -42.692848 0 0 0
-863.4621 -415.33719 -40.570587 0 0 0
-870.9588 -411.31564 -40.570587 0 0 0
-872.66193 -416.23721 -40.270584 0 0 0
-864.97736 -418.63721 -39.970589 0 0 0
-870.0589 -412.42502 -37.570587 0 0 0
-870.35883 -412.62259 -37.570587 0 0 0
-870.35883 -412.41251 -37.870583 0 0 0
-870.65887 -412.35883 -38.170586 0 0 0
-870.37897 -412.63721 -37.570587 0 0 0
-869.4588 -418.90494 -37.870583 0 0 0
-871.41583 -416.83719 -37.570587 0 0 0
0 0 0 1 0 0 0 1 0 0 0 1 0 0 0 0 0 78 1 0 0
