ply
format ascii 1.0
comment PCL generated
element vertex 50
property float x
property float y
property float z
property uchar red
property uchar green
property uchar blue
element camera 1
property float view_px
property float view_py
property float view_pz
property float x_axisx
property float x_axisy
property float x_axisz
property float y_axisx
property float y_axisy
property float y_axisz
property float z_axisx
property float z_axisy
property float z_axisz
property float focal
property float scalex
property float scaley
property float centerx
property float centery
property int viewportx
property int viewporty
property float k1
property float k2
end_header
192.84119 300.16284 175.97708 0 0 0
198.84119 304.15125 178.42941 0 0 0
191.79187 301.06284 178.12943 0 0 0
200.64117 301.96283 175.64105 0 0 0
194.0412 303.46283 180.26535 0 0 0
194.94119 298.06284 180.41492 0 0 0
197.64117 298.36282 173.59464 0 0 0
200.94119 302.87521 177.52942 0 0 0
199.83099 297.76285 177.52942 0 0 0
197.0412 296.42987 177.82944 0 0 0
194.37717 296.86282 177.82944 0 0 0
200.64117 300.76285 175.03162 0 0 0
196.14117 296.86282 175.06326 0 0 0
194.24911 297.46283 175.12943 0 0 0
198.84119 303.81958 179.92941 0 0 0
194.34119 303.7334 180.22943 0 0 0
194.0412 303.50183 180.22943 0 0 0
194.00095 303.46283 180.22943 0 0 0
193.74118 303.46283 179.95975 0 0 0
194.0412 303.73889 179.92941 0 0 0
193.74118 303.49008 179.92941 0 0 0
193.71484 303.46283 179.92941 0 0 0
199.90137 301.66284 180.22943 0 0 0
193.44119 303.13815 179.92941 0 0 0
192.5412 301.36282 179.69296 0 0 0
193.74118 303.6731 179.62943 0 0 0
199.79861 298.96283 179.62943 0 0 0
192.81445 298.96283 179.32944 0 0 0
198.84119 297.76285 174.71661 0 0 0
196.74118 302.56284 181.50333 0 0 0
196.74118 300.76285 181.78345 0 0 0
195.84119 299.56284 181.52148 0 0 0
201.00854 300.16284 176.32944 0 0 0
200.17007 298.36282 176.02942 0 0 0
198.50781 296.86282 176.32944 0 0 0
192.2735 298.96283 176.62943 0 0 0
200.70752 299.86282 178.72943 0 0 0
197.94119 297.02692 179.02942 0 0 0
195.5412 296.70554 178.72943 0 0 0
192.24118 305.86282 173.93634 0 0 0
199.14117 298.96283 173.97321 0 0 0
195.84119 297.76285 174.06607 0 0 0
197.34119 303.68463 180.82944 0 0 0
194.64117 303.26144 180.82944 0 0 0
198.40622 302.26285 181.12943 0 0 0
198.79666 299.56284 180.82944 0 0 0
194.0412 301.66284 181.05258 0 0 0
197.34119 298.37415 180.82944 0 0 0
193.74118 299.91043 180.82944 0 0 0
194.0412 303.16284 180.49887 0 0 0
0 0 0 1 0 0 0 1 0 0 0 1 0 0 0 0 0 50 1 0 0
