ply
format ascii 1.0
comment PCL generated
element vertex 55
property float x
property float y
property float z
property uchar red
property uchar green
property uchar blue
element camera 1
property float view_px
property float view_py
property float view_pz
property float x_axisx
property float x_axisy
property float x_axisz
property float y_axisx
property float y_axisy
property float y_axisz
property float z_axisx
property float z_axisy
property float z_axisz
property float focal
property float scalex
property float scaley
property float centerx
property float centery
property int viewportx
property int viewporty
property float k1
property float k2
end_header
-294.35883 235.96283 276.41263 0 0 0
-295.93921 235.66283 277.42941 0 0 0
-294.05884 235.36282 276.89014 0 0 0
-291.65881 235.96283 277.29758 0 0 0
-290.75885 238.36282 277.45517 0 0 0
-291.05884 235.98445 279.22943 0 0 0
-289.49255 238.36282 279.52942 0 0 0
-296.9201 239.56282 281.92941 0 0 0
-296.45886 241.36282 281.87326 0 0 0
-295.85883 241.92628 281.92941 0 0 0
-295.9303 242.26283 281.62943 0 0 0
-295.85883 242.26283 281.67422 0 0 0
-295.55884 242.26283 281.83957 0 0 0
-295.85883 242.31953 281.62943 0 0 0
-293.45886 242.61449 281.92941 0 0 0
-290.83533 240.16283 281.92941 0 0 0
-293.75885 234.99219 278.62943 0 0 0
-289.84406 237.46283 278.32944 0 0 0
-295.25885 235.52779 280.12943 0 0 0
-292.55884 235.60544 280.42941 0 0 0
-296.45886 236.32823 280.42941 0 0 0
-297.01855 236.86282 280.42941 0 0 0
-297.88898 238.06282 280.12943 0 0 0
-298.03247 240.16283 280.42941 0 0 0
-290.15881 241.64212 280.12943 0 0 0
-296.15881 238.36282 282.28052 0 0 0
-292.85883 237.76283 282.59448 0 0 0
-291.65881 238.36282 282.33966 0 0 0
-291.95886 240.76283 282.51102 0 0 0
-294.65881 240.83836 282.82944 0 0 0
-297.05884 236.29669 278.92941 0 0 0
-289.40686 240.16283 278.92941 0 0 0
-296.51294 236.56282 280.72943 0 0 0
-296.45886 236.5164 280.72943 0 0 0
-296.15881 236.29588 280.72943 0 0 0
-296.45886 236.56282 280.78339 0 0 0
-296.15881 236.53441 281.02942 0 0 0
-296.50232 236.86282 281.02942 0 0 0
-296.15881 242.47202 280.42941 0 0 0
-291.65881 242.61987 281.02942 0 0 0
-290.84784 237.16283 281.02942 0 0 0
-289.80591 239.86282 280.72943 0 0 0
-294.35883 239.56282 283.05176 0 0 0
-296.20148 236.86282 281.32944 0 0 0
-296.15881 236.82381 281.32944 0 0 0
-296.15881 236.86282 281.36938 0 0 0
-296.45886 237.16283 281.38562 0 0 0
-295.85883 236.86282 281.5712 0 0 0
-294.65881 236.26283 281.51834 0 0 0
-296.15881 242.37317 281.32944 0 0 0
-294.95886 243.05344 281.02942 0 0 0
-293.15881 243.12679 280.42941 0 0 0
-291.35883 242.37746 279.82944 0 0 0
-290.75885 241.20146 278.62943 0 0 0
-297.91882 237.46283 278.02942 0 0 0
0 0 0 1 0 0 0 1 0 0 0 1 0 0 0 0 0 55 1 0 0
