ply
format ascii 1.0
comment PCL generated
element vertex 59
property float x
property float y
property float z
property uchar red
property uchar green
property uchar blue
element camera 1
property float view_px
property float view_py
property float view_pz
property float x_axisx
property float x_axisy
property float x_axisz
property float y_axisx
property float y_axisy
property float y_axisz
property float z_axisx
property float z_axisy
property float z_axisz
property float focal
property float scalex
property float scaley
property float centerx
property float centery
property int viewportx
property int viewporty
property float k1
property float k2
end_header
-842.15887 137.56282 374.30884 0 0 0
-841.25067 139.96283 375.82941 0 0 0
-847.00751 136.96283 375.22943 0 0 0
-844.5589 141.31253 377.62946 0 0 0
-848.50836 136.66283 377.02942 0 0 0
-847.5589 134.9175 376.42944 0 0 0
-840.9588 134.88654 376.42944 0 0 0
-839.66766 138.46283 376.42944 0 0 0
-840.0589 139.8054 376.42944 0 0 0
-843.0589 134.56282 374.23553 0 0 0
-841.25885 134.86282 374.5918 0 0 0
-840.9588 135.13705 374.62946 0 0 0
-840.9588 135.16283 374.59564 0 0 0
-840.93597 135.16283 374.62946 0 0 0
-840.9588 135.46283 374.40643 0 0 0
-846.65887 137.26283 379.70435 0 0 0
-844.85883 136.39513 380.02942 0 0 0
-847.09967 138.76283 379.42944 0 0 0
-842.4588 136.66283 379.74921 0 0 0
-843.65887 140.26283 379.78809 0 0 0
-842.15887 141.06041 377.62946 0 0 0
-844.5589 133.96283 374.79694 0 0 0
-840.81073 135.16283 374.92944 0 0 0
-840.0589 136.66283 374.64819 0 0 0
-840.0589 138.16283 374.74261 0 0 0
-843.9588 137.26283 380.2738 0 0 0
-843.98749 137.56282 380.32941 0 0 0
-843.9588 137.56282 380.32599 0 0 0
-843.65887 137.56282 380.27991 0 0 0
-844.5589 137.86282 380.37701 0 0 0
-844.5589 138.76283 380.33417 0 0 0
-843.9588 137.59027 380.32941 0 0 0
-844.25885 137.86282 380.38123 0 0 0
-843.9588 138.16283 380.36829 0 0 0
-843.68707 137.86282 380.32941 0 0 0
-843.65887 137.86282 380.32635 0 0 0
-843.35883 137.86282 380.26892 0 0 0
-843.65887 137.89169 380.32941 0 0 0
-843.0589 138.76283 380.18036 0 0 0
-848.42645 138.16283 377.92944 0 0 0
-843.0589 134.15979 377.92944 0 0 0
-847.24713 140.56282 378.22943 0 0 0
-842.75885 141.24892 378.22943 0 0 0
-845.52057 133.66283 375.82941 0 0 0
-843.9588 133.47095 375.82941 0 0 0
-847.5589 135.76283 375.59418 0 0 0
-846.0589 135.0771 378.82941 0 0 0
-847.47809 136.06282 378.52942 0 0 0
-842.00336 135.46283 378.82941 0 0 0
-840.73602 136.96283 378.52942 0 0 0
-841.25885 139.7791 378.82941 0 0 0
-842.53558 141.16283 378.52942 0 0 0
-842.4588 141.14265 378.52942 0 0 0
-842.4588 141.16283 378.4527 0 0 0
-842.15887 141.04208 378.52942 0 0 0
-842.4588 140.96535 378.82941 0 0 0
-843.0589 141.2365 378.82941 0 0 0
-848.4588 137.86282 376.31085 0 0 0
-845.75885 140.96664 379.12946 0 0 0
0 0 0 1 0 0 0 1 0 0 0 1 0 0 0 0 0 59 1 0 0
