ply
format ascii 1.0
comment PCL generated
element vertex 729
property float x
property float y
property float z
property uchar red
property uchar green
property uchar blue
element camera 1
property float view_px
property float view_py
property float view_pz
property float x_axisx
property float x_axisy
property float x_axisz
property float y_axisx
property float y_axisy
property float y_axisz
property float z_axisx
property float z_axisy
property float z_axisz
property float focal
property float scalex
property float scaley
property float centerx
property float centery
property int viewportx
property int viewporty
property float k1
property float k2
end_header
17.560965 97.03952 6.8771381 0 0 0
17.028667 96.718575 6.992763 0 0 0
18.760963 97.03952 6.9317164 0 0 0
18.120724 96.315071 7.1770415 0 0 0
17.110964 95.785713 7.4019313 0 0 0
19.360964 97.03952 7.0366869 0 0 0
18.910965 96.139519 7.1683235 0 0 0
19.960964 96.439522 7.2662621 0 0 0
21.467075 98.376572 7.5248766 0 0 0
20.860964 97.108864 7.4467044 0 0 0
20.58149 96.687256 7.4255457 0 0 0
16.360964 97.713989 6.5561213 0 0 0
15.760964 97.339523 6.6432409 0 0 0
15.460964 97.78952 6.5880365 0 0 0
15.160964 98.989517 6.4334822 0 0 0
15.160964 99.589523 6.3771744 0 0 0
16.694973 97.130943 6.7813268 0 0 0
16.060965 96.91069 6.797801 0 0 0
15.760964 96.859726 6.8723621 0 0 0
15.497898 97.208313 6.8085771 0 0 0
15.160964 97.939522 6.69274 0 0 0
14.904552 98.989517 6.558917 0 0 0
16.810965 96.139519 7.2198911 0 0 0
16.360964 96.139519 7.2150192 0 0 0
16.060965 96.376312 7.0932541 0 0 0
15.768234 96.439522 7.1396236 0 0 0
15.310965 96.679237 7.2590065 0 0 0
16.472576 95.831802 7.4544764 0 0 0
16.060965 96.05677 7.3531508 0 0 0
15.332108 96.07991 7.7436843 0 0 0
14.856398 96.439522 7.7324114 0 0 0
14.537165 97.173088 7.4749403 0 0 0
14.564812 97.80751 7.128264 0 0 0
17.110964 95.53952 7.5748744 0 0 0
16.960964 95.403931 7.7365923 0 0 0
15.924858 95.812828 7.7016449 0 0 0
15.428004 95.820641 7.9841232 0 0 0
14.710964 96.294632 8.0654545 0 0 0
14.560964 96.739525 7.7499733 0 0 0
18.310965 95.839523 7.3222232 0 0 0
18.010963 95.53952 7.5107841 0 0 0
18.160965 95.28035 7.7895098 0 0 0
18.010963 95.127472 8.0365925 0 0 0
16.830866 95.227768 8.025547 0 0 0
16.195206 95.246315 8.3570881 0 0 0
18.760963 95.839523 7.2661834 0 0 0
18.760963 95.575409 7.470489 0 0 0
19.060965 95.592522 7.4912333 0 0 0
19.060965 95.407288 7.7365923 0 0 0
18.909105 95.22628 8.0127211 0 0 0
18.460964 95.193375 7.9527922 0 0 0
19.060965 95.839523 7.2809162 0 0 0
19.360964 96.139519 7.2077284 0 0 0
19.491905 95.814171 7.4233952 0 0 0
19.480343 95.530457 7.7235613 0 0 0
19.510963 95.360542 8.0365925 0 0 0
19.060965 94.872078 8.9365921 0 0 0
18.535965 94.946342 8.5058804 0 0 0
19.985504 96.123367 7.4123554 0 0 0
19.990654 95.821266 7.6901236 0 0 0
20.231497 95.557129 8.3365927 0 0 0
19.948227 95.249031 8.7703533 0 0 0
19.483757 94.91774 9.2365923 0 0 0
20.294827 96.406815 7.4003716 0 0 0
20.260963 96.139519 7.5487676 0 0 0
20.400402 96.062187 7.7570953 0 0 0
20.710964 96.589523 7.5476732 0 0 0
20.843124 96.45932 7.7726197 0 0 0
20.87343 96.140518 8.2052231 0 0 0
20.576908 95.826881 8.2948513 0 0 0
21.180998 97.007248 7.6951451 0 0 0
21.104874 96.739525 7.8006344 0 0 0
21.28446 96.739525 8.0365925 0 0 0
21.189766 96.111038 8.8050194 0 0 0
20.871138 95.8218 8.8115807 0 0 0
21.444962 97.371895 7.764308 0 0 0
21.556728 97.182358 8.0296278 0 0 0
21.738983 98.183304 7.7671208 0 0 0
21.849072 97.778214 8.0208702 0 0 0
22.055805 97.831825 8.3122883 0 0 0
22.055912 97.312469 8.8292027 0 0 0
21.860416 96.886665 8.9318199 0 0 0
21.474876 96.432907 8.8008347 0 0 0
22.101967 98.989517 7.9758692 0 0 0
22.047825 98.359924 8.0535021 0 0 0
22.229877 98.389526 8.3365927 0 0 0
22.243736 97.78952 8.7865925 0 0 0
22.281109 97.499596 9.2690372 0 0 0
22.067783 97.024956 9.3981209 0 0 0
22.026928 99.739525 7.787693 0 0 0
22.353668 99.28952 8.3785877 0 0 0
22.387135 98.839523 8.5140915 0 0 0
22.036232 100.03952 7.8490624 0 0 0
22.261591 100.18952 8.3365927 0 0 0
22.378273 99.814529 8.494298 0 0 0
22.460049 99.28952 8.6365919 0 0 0
22.546499 98.689522 9.0865917 0 0 0
22.36681 98.419418 8.6229782 0 0 0
21.833523 100.33952 7.6330462 0 0 0
22.048969 100.50794 8.0715075 0 0 0
22.103262 100.77441 8.3504486 0 0 0
22.259514 100.78569 8.7865925 0 0 0
22.397903 100.31468 8.7865925 0 0 0
21.750744 100.80698 7.7411642 0 0 0
21.834221 101.37386 8.3365927 0 0 0
22.023655 101.53952 9.0653696 0 0 0
22.359093 100.92056 9.3499317 0 0 0
22.465624 100.48952 9.2365923 0 0 0
21.437691 101.35474 7.6729479 0 0 0
21.47451 101.67223 8.0356731 0 0 0
21.438173 102.0797 8.4634247 0 0 0
21.788012 101.76101 8.7528 0 0 0
21.160965 101.82697 7.7365923 0 0 0
21.137997 102.24655 8.1865921 0 0 0
20.242321 102.42418 7.4365921 0 0 0
20.713942 102.28952 7.7193966 0 0 0
19.718639 102.75336 7.3792548 0 0 0
20.424786 102.97832 8.3061352 0 0 0
20.834557 102.56105 8.1865921 0 0 0
19.060965 102.97079 7.2110062 0 0 0
19.210964 103.09887 7.4467831 0 0 0
19.840931 103.05687 7.8613024 0 0 0
18.160965 103.09328 7.0803347 0 0 0
18.603687 103.30026 7.4365921 0 0 0
17.410965 103.09176 7.07935 0 0 0
18.010963 103.35314 7.3912983 0 0 0
16.218227 102.76717 7.1055775 0 0 0
16.780788 103.02495 7.1433101 0 0 0
15.460964 102.05269 6.8993793 0 0 0
22.47139 98.239525 9.0865917 0 0 0
22.485332 97.939522 9.5365925 0 0 0
22.316397 97.473518 9.5365925 0 0 0
22.581049 98.389526 9.5365925 0 0 0
22.642235 98.676468 10.286592 0 0 0
22.454245 97.939522 10.736592 0 0 0
22.279449 97.489517 10.736592 0 0 0
22.088268 96.99366 9.9865932 0 0 0
21.722565 96.555618 9.2365923 0 0 0
22.678612 99.08551 9.6865921 0 0 0
22.705183 99.28952 10.136593 0 0 0
22.524467 98.989517 11.261593 0 0 0
22.551693 98.389526 10.736592 0 0 0
22.194984 98.239525 11.936592 0 0 0
22.584179 99.139519 9.0865917 0 0 0
22.700012 99.439522 9.8365927 0 0 0
22.671444 99.866165 10.136593 0 0 0
22.607346 99.73381 10.811592 0 0 0
22.554348 99.439522 11.186592 0 0 0
22.554066 99.589523 9.0115919 0 0 0
22.667439 99.858154 9.8365927 0 0 0
22.552139 100.48952 10.136593 0 0 0
22.50951 100.18952 11.036592 0 0 0
22.482639 99.889526 11.336593 0 0 0
22.440098 99.28952 11.636593 0 0 0
22.522987 100.03952 9.0865917 0 0 0
22.527897 100.48952 9.6865921 0 0 0
22.381962 101.05885 10.136593 0 0 0
22.471138 100.63952 10.586592 0 0 0
22.28928 100.58284 11.486593 0 0 0
22.221725 100.18952 11.936592 0 0 0
22.079115 101.67859 9.7615929 0 0 0
22.104813 101.66759 10.136593 0 0 0
22.130596 101.38048 10.900415 0 0 0
22.149712 101.10034 11.369221 0 0 0
22.049591 100.96539 11.808257 0 0 0
22.068783 100.63952 12.042662 0 0 0
21.82745 101.96652 9.3115921 0 0 0
21.779343 102.13623 9.6865921 0 0 0
21.781803 102.16726 10.136593 0 0 0
21.85154 101.87016 10.886593 0 0 0
21.903709 101.53952 11.486593 0 0 0
21.462605 102.43952 9.2302313 0 0 0
21.503729 102.48921 9.6865921 0 0 0
21.51339 102.49925 10.136593 0 0 0
21.506939 102.19623 11.336593 0 0 0
21.749584 101.4968 11.912086 0 0 0
21.178665 102.45863 8.5666609 0 0 0
21.14662 102.71887 9.0661488 0 0 0
21.216524 102.79276 9.6865921 0 0 0
21.211723 102.78791 10.286592 0 0 0
20.881203 102.758 8.5652151 0 0 0
20.423824 103.25444 8.9100266 0 0 0
20.8866 103.03391 9.3865929 0 0 0
20.914249 103.08382 9.8365927 0 0 0
20.885288 103.04916 10.372228 0 0 0
21.15099 102.72528 10.908116 0 0 0
20.081955 103.37319 8.6365919 0 0 0
19.823025 103.59523 8.8982306 0 0 0
20.394354 103.38351 9.3865929 0 0 0
20.411724 103.42953 9.8269024 0 0 0
20.278103 103.39391 10.886593 0 0 0
20.612103 103.07547 11.336593 0 0 0
19.802368 103.3922 8.354599 0 0 0
19.482121 103.64452 8.5924397 0 0 0
19.21949 103.87176 9.0607071 0 0 0
19.952682 103.6313 9.3569403 0 0 0
20.00016 103.6588 9.8365927 0 0 0
19.171822 103.63645 8.3125534 0 0 0
18.610964 103.90799 8.6450996 0 0 0
18.610964 104.0491 9.2365923 0 0 0
19.060965 104.00363 9.5365925 0 0 0
19.210964 103.88647 10.734785 0 0 0
19.780094 103.66629 10.736592 0 0 0
18.610964 103.79439 8.3365927 0 0 0
18.010963 103.97865 8.6073608 0 0 0
18.010963 104.14375 9.5365925 0 0 0
18.610964 104.0847 9.5365925 0 0 0
18.760963 104.02921 10.586592 0 0 0
18.010963 103.61924 7.8490715 0 0 0
17.560965 103.90584 8.4161882 0 0 0
17.410965 104.04388 8.9365921 0 0 0
17.560965 103.3635 7.4023666 0 0 0
16.938503 103.56815 7.8787599 0 0 0
16.660965 103.68004 8.2068367 0 0 0
16.810965 103.88373 8.665308 0 0 0
16.960964 104.05061 9.3865929 0 0 0
17.078682 103.32281 7.4295635 0 0 0
16.660965 103.30569 7.5520105 0 0 0
16.030066 103.28296 7.8746285 0 0 0
16.195084 103.59276 8.3241844 0 0 0
16.210964 103.70846 8.6202469 0 0 0
16.530834 103.96608 9.5365925 0 0 0
16.222738 103.05541 7.4239082 0 0 0
15.60255 102.95876 7.7299566 0 0 0
15.727762 103.33521 8.2247429 0 0 0
15.605951 103.42933 8.6265202 0 0 0
15.921823 103.67915 9.0072527 0 0 0
15.590473 102.72879 7.4368229 0 0 0
15.1856 102.72046 7.7891645 0 0 0
14.945259 102.76247 8.1600904 0 0 0
15.314753 103.14008 8.3365927 0 0 0
14.960737 103.05286 8.8054991 0 0 0
15.176144 103.33243 9.3676662 0 0 0
15.718746 102.46675 7.0870309 0 0 0
15.324717 102.25327 7.158185 0 0 0
14.884321 102.13952 7.4365921 0 0 0
14.48774 102.12097 7.896204 0 0 0
14.55112 102.43513 8.2047062 0 0 0
15.460964 101.83952 6.7599139 0 0 0
14.868231 101.68111 7.0711107 0 0 0
14.560804 101.60896 7.3310528 0 0 0
14.268984 101.7934 7.8650036 0 0 0
14.249519 102.15454 8.2929573 0 0 0
15.160964 101.23952 6.6438508 0 0 0
14.860964 101.23952 6.8063602 0 0 0
14.54549 101.26636 7.1048694 0 0 0
14.181425 101.08952 7.4266577 0 0 0
13.904875 101.37366 8.0438919 0 0 0
13.904803 101.67944 8.3640423 0 0 0
15.160964 100.03952 6.4045601 0 0 0
14.860964 100.71452 6.6697798 0 0 0
14.619173 100.93952 6.8844862 0 0 0
14.284151 100.78952 7.1548343 0 0 0
13.951572 100.47207 7.4174752 0 0 0
13.687906 100.76147 7.9570045 0 0 0
14.560964 99.439522 6.6532402 0 0 0
14.560964 99.889526 6.6985264 0 0 0
14.212011 100.26453 7.072885 0 0 0
14.280756 98.989517 6.9068432 0 0 0
14.287971 99.439522 6.8593092 0 0 0
13.950785 99.439522 7.2325554 0 0 0
13.676349 100.27048 7.7365923 0 0 0
14.912514 97.939522 6.8733945 0 0 0
14.260964 98.389526 7.0928254 0 0 0
13.942507 98.40493 7.4140034 0 0 0
13.945756 98.989517 7.26791 0 0 0
14.177221 97.939522 7.3516159 0 0 0
13.933511 97.78952 7.7149043 0 0 0
13.657816 98.314529 7.8487878 0 0 0
13.638543 98.839523 7.7034101 0 0 0
13.666145 99.28952 7.6184645 0 0 0
14.212107 97.203522 7.7595739 0 0 0
13.950743 97.321747 8.0065145 0 0 0
13.715179 97.77449 8.0365925 0 0 0
13.316656 98.080261 8.6365919 0 0 0
13.342466 98.839523 8.2217598 0 0 0
14.191929 96.899925 8.0597229 0 0 0
13.694677 97.156563 8.6365919 0 0 0
13.674208 97.455811 8.3592386 0 0 0
13.411325 97.639519 8.7926006 0 0 0
13.223383 98.089523 8.9365921 0 0 0
13.183062 98.689522 8.6365919 0 0 0
14.244657 96.420242 8.5758476 0 0 0
13.981899 96.547592 8.9365921 0 0 0
13.57935 97.187469 8.9365921 0 0 0
14.848915 95.904091 8.4680691 0 0 0
14.271307 96.15538 9.0619125 0 0 0
13.955216 96.452744 9.3438139 0 0 0
13.699511 96.859985 9.2365923 0 0 0
13.285183 97.639519 9.3865929 0 0 0
15.333838 95.48822 8.6506367 0 0 0
14.733393 95.775063 8.9365921 0 0 0
14.707596 95.709938 9.2231159 0 0 0
14.205593 96.081734 9.9115925 0 0 0
13.924187 96.392792 9.9865932 0 0 0
15.778511 95.247345 8.6707258 0 0 0
15.478878 95.24826 9.051116 0 0 0
15.10207 95.500473 8.9365921 0 0 0
15.160964 95.351013 9.3865929 0 0 0
14.826654 95.514252 10.286592 0 0 0
14.493664 95.781204 10.286592 0 0 0
16.210964 95.105209 8.6365919 0 0 0
15.910965 95.104897 8.9365921 0 0 0
15.831635 95.038269 9.3776417 0 0 0
15.391857 95.2033 9.5365925 0 0 0
16.94269 94.993896 8.4865923 0 0 0
16.519363 94.914017 8.9548168 0 0 0
16.210964 94.841331 9.8365927 0 0 0
15.830532 94.968674 9.9865932 0 0 0
15.339503 95.205795 9.9865932 0 0 0
18.010963 94.949791 8.4101486 0 0 0
17.710964 94.766144 8.9365921 0 0 0
17.185963 94.760803 9.0865917 0 0 0
17.140486 94.632767 9.8365927 0 0 0
16.660965 94.712433 9.9865932 0 0 0
16.210964 94.829987 10.136593 0 0 0
18.610964 94.800507 8.9365921 0 0 0
18.189722 94.659042 9.3865929 0 0 0
17.785965 94.654449 9.3537941 0 0 0
18.010963 94.592339 9.8365927 0 0 0
17.560965 94.583656 10.286592 0 0 0
17.260963 94.630157 10.586592 0 0 0
19.060965 94.797028 9.2365923 0 0 0
18.985966 94.736954 9.6865921 0 0 0
19.360964 94.821548 9.6865921 0 0 0
19.521345 94.883286 10.283514 0 0 0
19.060965 94.736855 10.136593 0 0 0
18.636536 94.652046 10.136593 0 0 0
18.310965 94.67868 11.036592 0 0 0
17.673466 94.640045 10.857742 0 0 0
19.810965 94.99408 9.5113859 0 0 0
19.960964 95.047272 10.286592 0 0 0
19.960964 95.111427 10.886593 0 0 0
18.910965 94.777588 11.036592 0 0 0
18.610964 94.776245 11.336593 0 0 0
17.935965 94.728767 11.336593 0 0 0
20.246988 95.224762 9.4194183 0 0 0
20.306784 95.212372 9.9865932 0 0 0
20.256006 95.224289 10.56694 0 0 0
20.572248 95.52533 11.167088 0 0 0
19.960964 95.2668 11.509807 0 0 0
19.197556 95.001099 11.615272 0 0 0
20.741642 95.585159 9.2365923 0 0 0
20.685455 95.488861 9.5365925 0 0 0
20.69643 95.464417 10.136593 0 0 0
20.936138 95.773438 11.036592 0 0 0
20.569405 95.758728 11.798788 0 0 0
21.112701 95.883926 9.2365923 0 0 0
21.146217 95.839523 9.6933479 0 0 0
21.162888 95.839523 10.17594 0 0 0
21.453156 96.139519 10.371461 0 0 0
21.171127 96.128784 11.457251 0 0 0
21.424217 96.163223 9.3865929 0 0 0
21.466042 96.139519 9.9934235 0 0 0
21.83889 96.611237 9.9865932 0 0 0
21.826584 96.608719 10.436592 0 0 0
21.460964 96.421234 11.385262 0 0 0
22.083092 97.001266 10.436592 0 0 0
21.993973 97.03952 10.954724 0 0 0
21.520042 96.612961 11.636593 0 0 0
20.83815 96.15345 12.099543 0 0 0
22.018873 97.478935 11.66282 0 0 0
21.790588 97.220444 11.936592 0 0 0
21.132477 96.775574 12.536592 0 0 0
20.846447 96.439522 12.517298 0 0 0
20.286819 95.820709 12.28966 0 0 0
19.949814 95.489868 12.066723 0 0 0
22.052486 97.838058 11.958483 0 0 0
21.476076 97.78952 12.871331 0 0 0
21.183355 97.213821 12.862787 0 0 0
20.549238 96.439522 12.836593 0 0 0
20.088142 96.342407 13.136593 0 0 0
19.692799 96.121346 13.179494 0 0 0
21.738277 98.239525 12.725267 0 0 0
21.46788 98.4133 13.152967 0 0 0
21.138042 97.939522 13.328114 0 0 0
20.58419 97.216629 13.456438 0 0 0
20.218197 96.758301 13.420542 0 0 0
19.826424 96.48246 13.444919 0 0 0
21.755709 98.714142 12.863406 0 0 0
21.523033 98.989517 13.207127 0 0 0
20.925222 98.839523 13.788647 0 0 0
20.867508 98.414467 13.749317 0 0 0
20.554947 97.797745 13.792549 0 0 0
19.982132 96.998566 13.749741 0 0 0
22.274376 98.689522 11.936592 0 0 0
21.791897 99.139519 12.881502 0 0 0
21.497381 100.03952 13.177507 0 0 0
20.936607 99.739525 13.796749 0 0 0
20.410965 98.830093 14.133121 0 0 0
20.260963 98.389526 14.154488 0 0 0
22.48402 98.53952 11.186592 0 0 0
22.095627 99.28952 12.356049 0 0 0
21.760963 100.02148 12.836593 0 0 0
14.579882 102.73138 8.7579632 0 0 0
14.5348 102.83157 9.3865929 0 0 0
15.145487 103.36769 9.9865932 0 0 0
15.648771 103.65604 9.8365927 0 0 0
14.278088 102.42917 8.76021 0 0 0
14.21224 102.49278 9.2365923 0 0 0
14.317087 102.68214 10.136593 0 0 0
14.632258 102.9768 9.9865932 0 0 0
14.789813 103.09593 10.436592 0 0 0
15.460964 103.50811 10.736592 0 0 0
14.005835 102.0184 8.6365919 0 0 0
13.969431 102.16292 9.121151 0 0 0
13.915686 102.20077 9.6865921 0 0 0
13.938159 102.25143 10.136593 0 0 0
14.47282 102.7906 10.586592 0 0 0
13.629083 101.36028 8.6365919 0 0 0
13.579773 101.59642 9.3865929 0 0 0
13.417048 101.40583 10.061593 0 0 0
13.660908 101.83952 10.249109 0 0 0
13.924868 102.18861 10.586592 0 0 0
14.156768 102.46817 10.586592 0 0 0
13.660964 101.2198 8.357831 0 0 0
13.497366 100.78952 8.3365927 0 0 0
13.400802 100.93952 8.7829132 0 0 0
13.268465 100.93952 9.3865929 0 0 0
13.360964 100.32818 8.3365927 0 0 0
13.187048 100.48952 9.0865917 0 0 0
13.058726 100.44318 10.136593 0 0 0
13.220749 100.93952 9.9865932 0 0 0
13.303205 99.889526 8.3075857 0 0 0
13.18432 99.889526 8.6365919 0 0 0
12.955672 99.739525 9.6865921 0 0 0
12.974794 100.03952 10.286592 0 0 0
13.067589 100.37352 10.552942 0 0 0
13.226743 100.93952 10.436592 0 0 0
13.258037 99.28952 8.3365927 0 0 0
13.148125 99.28952 8.6365919 0 0 0
12.927608 99.28952 9.8365927 0 0 0
12.923143 99.139519 10.436592 0 0 0
12.979643 99.589523 10.736592 0 0 0
13.047013 100.03952 10.863512 0 0 0
13.062885 98.839523 9.0384932 0 0 0
12.963099 98.839523 9.6865921 0 0 0
12.969015 98.53952 10.136593 0 0 0
13.05379 98.702553 11.007905 0 0 0
13.080509 99.28952 11.210792 0 0 0
13.090509 99.776733 11.186592 0 0 0
13.089637 98.538177 9.0865917 0 0 0
13.123676 97.939522 9.8365927 0 0 0
13.100304 98.089523 10.54442 0 0 0
13.177823 98.389526 11.336593 0 0 0
13.188156 98.989517 11.561593 0 0 0
13.331413 99.439522 11.997149 0 0 0
13.213734 97.639519 9.9865932 0 0 0
13.346386 97.339523 10.436592 0 0 0
13.335248 97.815521 11.336593 0 0 0
13.609919 98.082558 12.236592 0 0 0
13.304608 98.595993 11.773401 0 0 0
13.422619 97.162079 10.136593 0 0 0
13.660964 96.739349 10.161642 0 0 0
13.659992 96.888268 10.886593 0 0 0
13.513541 97.339523 11.336593 0 0 0
13.717649 97.170975 11.64727 0 0 0
13.650988 97.594711 11.957046 0 0 0
13.922503 96.388702 10.436592 0 0 0
14.018167 96.511765 11.336593 0 0 0
13.757082 96.896019 11.322878 0 0 0
14.040903 96.742203 11.782722 0 0 0
14.022369 97.179688 12.254978 0 0 0
13.866476 97.639519 12.38846 0 0 0
14.194314 96.067322 10.436592 0 0 0
14.300859 96.18232 11.336593 0 0 0
14.276541 96.457008 11.818703 0 0 0
14.513513 95.797333 10.736592 0 0 0
14.577023 95.859032 11.205357 0 0 0
14.550962 96.130287 11.749407 0 0 0
14.697248 96.28952 12.236592 0 0 0
14.260964 96.755539 12.219 0 0 0
14.853848 95.556519 10.920257 0 0 0
15.078032 95.566124 11.464296 0 0 0
15.169479 95.786011 12.065575 0 0 0
15.144663 96.114273 12.552669 0 0 0
14.701447 97.027916 13.003931 0 0 0
14.257082 97.520607 12.864897 0 0 0
15.42241 95.165421 10.586592 0 0 0
15.302935 95.299576 11.076948 0 0 0
15.626862 95.192245 11.336593 0 0 0
15.452938 95.464218 11.786592 0 0 0
15.589417 95.613327 12.236592 0 0 0
15.953772 94.932526 10.436592 0 0 0
16.202259 94.975937 11.357935 0 0 0
16.360964 95.059448 11.786592 0 0 0
16.435963 94.823959 10.811592 0 0 0
16.810965 94.805054 11.336593 0 0 0
17.269737 94.88588 11.786592 0 0 0
17.110964 95.080727 12.236592 0 0 0
16.510963 95.225815 12.271776 0 0 0
17.260963 94.707314 11.186592 0 0 0
17.710964 94.997025 12.107533 0 0 0
17.710964 95.221672 12.568361 0 0 0
17.410965 95.5784 13.086878 0 0 0
16.960964 95.669052 13.136593 0 0 0
17.860964 104.11668 10.586592 0 0 0
18.010963 104.04636 11.036592 0 0 0
18.445116 103.97325 11.176924 0 0 0
19.360964 103.74223 11.186592 0 0 0
17.410965 104.11694 10.436592 0 0 0
16.960964 104.03732 10.736592 0 0 0
17.25716 103.89679 11.486593 0 0 0
18.160965 103.93677 11.433912 0 0 0
18.535965 103.7675 11.786592 0 0 0
19.20063 103.67207 11.616453 0 0 0
16.810965 104.03923 10.436592 0 0 0
16.548546 103.94824 10.736592 0 0 0
16.360964 103.79096 11.186592 0 0 0
16.810965 103.77626 11.636593 0 0 0
17.260963 103.68321 12.067705 0 0 0
18.160965 103.70041 12.060955 0 0 0
16.219336 103.88399 9.8365927 0 0 0
15.910965 103.72072 10.759731 0 0 0
16.203068 103.59061 11.643539 0 0 0
16.510963 103.42696 12.265316 0 0 0
15.720883 103.3382 11.756186 0 0 0
16.080574 103.37616 12.056995 0 0 0
16.360964 103.22736 12.536592 0 0 0
16.810965 103.35419 12.553272 0 0 0
15.063271 103.1039 11.261593 0 0 0
15.160964 102.97408 11.786592 0 0 0
15.760964 103.06374 12.351108 0 0 0
15.760964 102.73952 12.817985 0 0 0
16.194328 102.71693 13.104042 0 0 0
16.660965 102.97908 13.011297 0 0 0
14.581902 102.72679 11.207722 0 0 0
14.543537 102.45706 11.761255 0 0 0
15.010963 102.60764 12.236592 0 0 0
15.403185 102.46136 12.859694 0 0 0
15.910965 102.13952 13.484059 0 0 0
16.660965 102.55227 13.466485 0 0 0
14.280441 102.42323 11.204262 0 0 0
14.253454 102.14859 11.749817 0 0 0
14.696537 102.1799 12.418392 0 0 0
15.123772 102.17447 12.905357 0 0 0
15.107985 101.86916 13.15888 0 0 0
15.610964 101.83952 13.525759 0 0 0
13.913604 101.90485 11.336593 0 0 0
13.716908 101.2589 11.786592 0 0 0
13.980537 101.33655 12.258331 0 0 0
14.403389 101.7027 12.540195 0 0 0
14.696682 101.72073 12.875532 0 0 0
13.583879 101.5638 10.886593 0 0 0
13.604695 101.38953 11.311337 0 0 0
13.547483 100.78952 11.861592 0 0 0
13.720371 100.78755 12.235182 0 0 0
13.932564 100.78688 12.573783 0 0 0
14.191149 101.20599 12.67538 0 0 0
13.429924 101.39513 10.49076 0 0 0
13.407328 101.10567 11.049803 0 0 0
13.360801 100.65749 11.468493 0 0 0
13.356336 100.33952 11.741688 0 0 0
13.636919 100.33952 12.351458 0 0 0
14.261902 100.45282 13.151883 0 0 0
13.18715 100.33952 11.186592 0 0 0
13.637017 99.28952 12.575457 0 0 0
13.910056 99.889526 12.9042 0 0 0
14.491932 100.03952 13.497479 0 0 0
13.913227 99.439522 12.957056 0 0 0
14.302477 99.28952 13.3915 0 0 0
14.560964 99.589523 13.625002 0 0 0
14.844602 100.15987 13.739807 0 0 0
14.556124 100.46962 13.432948 0 0 0
14.500784 100.93952 13.196081 0 0 0
13.949291 98.53952 12.943274 0 0 0
14.624903 98.989517 13.680039 0 0 0
15.004484 98.806664 13.947866 0 0 0
15.142473 99.565308 14.033106 0 0 0
13.646622 98.709869 12.530534 0 0 0
13.934788 98.072372 12.746765 0 0 0
14.238356 98.113815 13.160555 0 0 0
14.836606 98.40773 13.754235 0 0 0
14.528008 97.504517 13.158852 0 0 0
15.160964 97.766983 13.802328 0 0 0
15.610717 98.014069 14.136076 0 0 0
15.610964 98.53952 14.245936 0 0 0
15.584414 99.439522 14.278548 0 0 0
15.160964 97.196365 13.519459 0 0 0
15.432556 97.231171 13.729185 0 0 0
15.726816 97.528633 14.031294 0 0 0
16.205429 97.714523 14.310092 0 0 0
15.953683 98.180359 14.330618 0 0 0
16.060965 98.989517 14.483301 0 0 0
15.140333 96.697723 13.154907 0 0 0
15.44379 96.739525 13.436592 0 0 0
15.889351 96.731613 13.684742 0 0 0
16.060965 97.228783 14.052821 0 0 0
15.426809 96.28952 12.986593 0 0 0
15.921474 96.414673 13.452631 0 0 0
16.526775 96.429535 13.737548 0 0 0
16.413692 96.890953 13.997511 0 0 0
16.510963 97.356674 14.28478 0 0 0
15.92738 95.838379 12.852324 0 0 0
16.510963 95.820374 13.16381 0 0 0
17.560965 96.16526 13.736592 0 0 0
16.892872 96.739525 14.053967 0 0 0
16.360964 95.558113 12.727818 0 0 0
18.010963 96.162079 13.736592 0 0 0
17.710964 96.492355 13.998469 0 0 0
17.710964 96.890259 14.251431 0 0 0
17.110964 97.339523 14.42383 0 0 0
16.660965 97.78952 14.471972 0 0 0
18.010963 95.572281 13.096357 0 0 0
18.610964 96.157593 13.655865 0 0 0
18.460964 96.633606 14.048866 0 0 0
18.330259 97.056519 14.337446 0 0 0
18.010963 97.339523 14.487957 0 0 0
18.214458 95.31974 12.694256 0 0 0
19.00704 95.556152 12.836593 0 0 0
19.191639 96.128502 13.456978 0 0 0
18.760963 96.360657 13.794509 0 0 0
18.910965 97.078674 14.234789 0 0 0
18.460964 97.339523 14.462792 0 0 0
18.310965 95.019821 12.080294 0 0 0
19.058723 95.165283 12.086592 0 0 0
19.598867 95.500214 12.374008 0 0 0
19.532631 97.031723 13.994102 0 0 0
18.310965 94.830765 11.636593 0 0 0
18.760963 94.939507 11.737289 0 0 0
19.493622 95.243355 11.956387 0 0 0
19.526781 97.639519 14.293064 0 0 0
18.895517 97.349136 14.371787 0 0 0
18.553673 97.770226 14.591641 0 0 0
20.255682 97.939522 14.036592 0 0 0
19.660965 98.389526 14.442913 0 0 0
19.210964 97.78952 14.459082 0 0 0
18.460964 98.389526 14.751228 0 0 0
18.160965 97.811111 14.659336 0 0 0
19.183195 98.839523 14.655019 0 0 0
18.610964 98.839523 14.776064 0 0 0
18.010963 98.989517 14.818288 0 0 0
17.560965 98.989517 14.811076 0 0 0
17.560965 98.389526 14.76738 0 0 0
17.710964 97.939522 14.693375 0 0 0
19.83584 98.839523 14.434948 0 0 0
19.060965 99.28952 14.687759 0 0 0
18.610964 100.03952 14.701939 0 0 0
18.010963 100.03952 14.748104 0 0 0
19.960964 99.28952 14.406089 0 0 0
19.660965 99.889526 14.479582 0 0 0
19.210964 100.48952 14.494595 0 0 0
18.610964 100.93952 14.488146 0 0 0
18.310965 100.48958 14.636311 0 0 0
20.061701 99.739525 14.337254 0 0 0
19.650448 100.47597 14.370752 0 0 0
19.2771 101.08952 14.295434 0 0 0
18.460964 101.35414 14.353941 0 0 0
18.010963 101.23952 14.431406 0 0 0
17.710964 100.33952 14.686892 0 0 0
20.374226 100.26453 14.072861 0 0 0
19.93132 101.13017 14.038675 0 0 0
19.472889 101.5468 14.042032 0 0 0
18.920948 101.67754 14.103283 0 0 0
18.310965 101.9853 14.028 0 0 0
20.88335 100.1906 13.754038 0 0 0
20.801945 100.63952 13.687011 0 0 0
20.289059 101.34966 13.73111 0 0 0
19.699131 101.86716 13.736592 0 0 0
18.760963 102.13952 13.869525 0 0 0
21.436411 100.49069 13.109237 0 0 0
20.848255 101.12766 13.424651 0 0 0
20.720734 101.70804 13.155005 0 0 0
20.265726 101.83952 13.436592 0 0 0
19.793884 102.17747 13.455987 0 0 0
19.218357 102.47189 13.465113 0 0 0
21.646172 100.48952 12.836593 0 0 0
21.460964 100.97924 12.861099 0 0 0
21.250767 101.37619 12.836593 0 0 0
20.872669 102.00876 12.706079 0 0 0
20.277809 102.15279 13.164383 0 0 0
19.791258 102.4738 13.176323 0 0 0
21.78894 100.93952 12.351194 0 0 0
21.160965 101.84682 12.536592 0 0 0
22.086704 99.739525 12.350416 0 0 0
17.260963 98.239525 14.716148 0 0 0
16.578754 98.374146 14.589575 0 0 0
16.549778 98.989517 14.644253 0 0 0
16.477322 99.439522 14.62167 0 0 0
15.985965 99.586761 14.441563 0 0 0
15.460964 99.889526 14.174583 0 0 0
16.960964 99.589523 14.714153 0 0 0
16.776234 99.967926 14.633408 0 0 0
16.305737 100.48952 14.40106 0 0 0
15.760964 100.63952 14.155882 0 0 0
15.444317 100.46133 14.04591 0 0 0
15.053226 100.70576 13.724133 0 0 0
17.410965 100.03952 14.725996 0 0 0
17.201263 100.3577 14.641448 0 0 0
16.810965 100.71452 14.471463 0 0 0
16.210964 101.08952 14.174311 0 0 0
15.713932 101.56357 13.748753 0 0 0
15.447881 101.10631 13.81118 0 0 0
17.560965 101.36604 14.367186 0 0 0
17.110964 101.23952 14.358253 0 0 0
16.660965 101.66071 14.071026 0 0 0
16.03009 101.86227 13.736592 0 0 0
15.324316 101.53952 13.526621 0 0 0
17.710964 101.9549 14.063571 0 0 0
17.260963 101.93965 14.035872 0 0 0
16.543028 102.15121 13.743879 0 0 0
17.988003 102.44546 13.736592 0 0 0
17.439987 102.44654 13.733267 0 0 0
16.960964 102.38681 13.696638 0 0 0
18.29575 102.75679 13.436592 0 0 0
17.710964 102.77171 13.449895 0 0 0
17.129709 103.01973 13.11096 0 0 0
17.260963 103.45453 12.536592 0 0 0
18.760963 102.70287 13.400648 0 0 0
18.325998 103.02994 13.121729 0 0 0
17.560965 103.30956 12.796753 0 0 0
17.710964 103.4823 12.536592 0 0 0
18.310965 103.4599 12.536592 0 0 0
19.243938 103.02742 12.820934 0 0 0
18.875031 103.34485 12.54549 0 0 0
19.510963 103.10751 12.538859 0 0 0
19.208508 103.43086 12.161592 0 0 0
20.123568 102.9623 12.249575 0 0 0
19.660965 103.28479 12.086592 0 0 0
19.630123 103.55071 11.486593 0 0 0
20.326305 102.57532 12.604754 0 0 0
20.860964 102.43475 12.229093 0 0 0
20.099897 103.39062 11.296702 0 0 0
21.160965 102.11601 12.202997 0 0 0
21.081886 102.65999 11.336593 0 0 0
14.702561 101.38368 13.125857 0 0 0
14.920544 101.07993 13.477026 0 0 0
21.877871 95.839523 12.236592 0 0 0
21.774761 95.53952 11.936592 0 0 0
0 0 0 1 0 0 0 1 0 0 0 1 0 0 0 0 0 729 1 0 0
