ply
format ascii 1.0
comment PCL generated
element vertex 760
property float x
property float y
property float z
property uchar red
property uchar green
property uchar blue
element camera 1
property float view_px
property float view_py
property float view_pz
property float x_axisx
property float x_axisy
property float x_axisz
property float y_axisx
property float y_axisy
property float y_axisz
property float z_axisx
property float z_axisy
property float z_axisz
property float focal
property float scalex
property float scaley
property float centerx
property float centery
property int viewportx
property int viewporty
property float k1
property float k2
end_header
-428.62048 -316.19247 -42.976383 0 0 0
-428.98907 -315.78333 -43.04464 0 0 0
-428.52612 -315.57318 -42.633854 0 0 0
-428.23904 -316.21332 -42.736244 0 0 0
-428.23407 -316.81049 -42.938828 0 0 0
-429.42413 -315.16049 -42.972328 0 0 0
-428.55417 -315.16049 -42.349846 0 0 0
-428.25745 -315.5162 -42.340782 0 0 0
-430.03906 -315.34723 -43.288124 0 0 0
-429.91449 -314.85126 -42.97934 0 0 0
-429.27313 -314.87457 -42.642563 0 0 0
-430.79834 -315.30334 -43.334461 0 0 0
-430.93906 -314.51508 -42.999569 0 0 0
-430.47073 -314.58328 -42.953163 0 0 0
-429.89587 -314.53125 -42.697197 0 0 0
-429.27567 -314.61115 -42.373703 0 0 0
-431.98907 -315.16049 -43.448315 0 0 0
-431.61099 -314.85986 -43.273277 0 0 0
-431.83905 -314.56049 -43.092632 0 0 0
-431.08905 -314.2605 -42.796944 0 0 0
-430.52216 -314.25577 -42.670193 0 0 0
-432.43906 -315.16049 -43.458675 0 0 0
-432.13907 -314.83105 -43.286072 0 0 0
-432.13907 -314.51056 -43.015465 0 0 0
-431.68906 -314.17261 -42.69384 0 0 0
-432.69653 -315.47418 -43.563408 0 0 0
-432.73904 -315.16049 -43.398186 0 0 0
-433.08551 -315.74124 -43.569706 0 0 0
-433.03906 -315.46048 -43.471596 0 0 0
-433.88852 -316.7843 -43.564671 0 0 0
-434.04529 -318.16049 -43.569813 0 0 0
-434.23904 -317.11047 -43.446976 0 0 0
-433.78906 -319.58881 -43.347694 0 0 0
-433.48907 -315.7605 -43.422745 0 0 0
-433.4725 -315.45837 -43.274384 0 0 0
-433.20209 -315.15314 -43.203033 0 0 0
-432.60492 -314.58237 -42.945454 0 0 0
-434.23904 -316.66049 -43.372372 0 0 0
-434.23904 -316.21051 -43.204834 0 0 0
-434.08905 -315.61047 -42.983788 0 0 0
-433.96582 -315.11386 -42.684891 0 0 0
-433.16757 -314.55664 -42.653809 0 0 0
-434.47125 -316.66049 -43.212044 0 0 0
-434.55157 -316.22668 -42.965538 0 0 0
-434.41397 -315.59668 -42.692245 0 0 0
-434.26758 -315.13153 -42.425095 0 0 0
-433.96295 -314.70099 -42.231728 0 0 0
-434.52075 -317.07416 -43.268341 0 0 0
-434.85748 -317.11047 -42.985077 0 0 0
-434.797 -316.66049 -42.918839 0 0 0
-435.17764 -316.66049 -42.482254 0 0 0
-435.13907 -316.3605 -42.38879 0 0 0
-434.9201 -315.91623 -42.358822 0 0 0
-434.57776 -317.71051 -43.290276 0 0 0
-434.89606 -317.56049 -43.020065 0 0 0
-435.134 -317.133 -42.68491 0 0 0
-434.53403 -318.29117 -43.277916 0 0 0
-434.89642 -318.0105 -43.01844 0 0 0
-435.43906 -318.0105 -42.403305 0 0 0
-435.43338 -317.44678 -42.37521 0 0 0
-435.48553 -317.03546 -42.183086 0 0 0
-434.53906 -318.91049 -43.156258 0 0 0
-434.85483 -318.60602 -42.977478 0 0 0
-435.1651 -318.46048 -42.69268 0 0 0
-435.43848 -318.45642 -42.363411 0 0 0
-435.75104 -318.23547 -41.897911 0 0 0
-435.83487 -317.8605 -41.763409 0 0 0
-434.23904 -319.66049 -43.131615 0 0 0
-434.54883 -319.48608 -42.981892 0 0 0
-434.7919 -319.06049 -42.922485 0 0 0
-435.11755 -318.91049 -42.635895 0 0 0
-435.41565 -318.98547 -42.232067 0 0 0
-435.72656 -318.93307 -41.74826 0 0 0
-433.80292 -320.64252 -42.885223 0 0 0
-434.25497 -320.12195 -42.913387 0 0 0
-434.56213 -320.09827 -42.676899 0 0 0
-434.86713 -319.5105 -42.687378 0 0 0
-435.13391 -319.55273 -42.355263 0 0 0
-432.56421 -321.13287 -42.944702 0 0 0
-433.03906 -320.91803 -42.989655 0 0 0
-433.33905 -321.16049 -42.80872 0 0 0
-433.61142 -321.16049 -42.66341 0 0 0
-434.09042 -320.70911 -42.665413 0 0 0
-432.21405 -321.33432 -42.889084 0 0 0
-433.03906 -321.16049 -42.881672 0 0 0
-433.33905 -321.40317 -42.611084 0 0 0
-433.63907 -321.43988 -42.33593 0 0 0
-434.09552 -321.03397 -42.369637 0 0 0
-434.68161 -320.5683 -42.202694 0 0 0
-431.83905 -321.19791 -42.983055 0 0 0
-431.68906 -321.46048 -42.861916 0 0 0
-431.97897 -321.77579 -42.66341 0 0 0
-433.08167 -321.46048 -42.679832 0 0 0
-433.20071 -321.6904 -42.363411 0 0 0
-433.78235 -321.59052 -41.981461 0 0 0
-430.86407 -320.99551 -42.981316 0 0 0
-431.23904 -321.46048 -42.827682 0 0 0
-431.42255 -321.77521 -42.654137 0 0 0
-430.17462 -320.86679 -42.917282 0 0 0
-430.47095 -321.46808 -42.628128 0 0 0
-430.03906 -321.7605 -42.255833 0 0 0
-431.38904 -322.04517 -42.336674 0 0 0
-429.73904 -320.63458 -43.02652 0 0 0
-429.88904 -321.04642 -42.701912 0 0 0
-429.59259 -321.16049 -42.442398 0 0 0
-429.71652 -321.7605 -42.063408 0 0 0
-430.03906 -321.92566 -42.063408 0 0 0
-430.93906 -322.11725 -42.137329 0 0 0
-429.39374 -320.57312 -42.975166 0 0 0
-429.13907 -320.33868 -43.026073 0 0 0
-428.21344 -317.41049 -42.996017 0 0 0
-428.20819 -318.0105 -42.996487 0 0 0
-427.92371 -316.88251 -42.66341 0 0 0
-427.91266 -317.2605 -42.700016 0 0 0
-427.78906 -318.77957 -42.512672 0 0 0
-428.22934 -318.80975 -42.963409 0 0 0
-427.48416 -316.81049 -42.063408 0 0 0
-427.60669 -318.31049 -42.375668 0 0 0
-427.33118 -318.56897 -42.050209 0 0 0
-427.78171 -319.06049 -42.401871 0 0 0
-428.53906 -319.67328 -42.970928 0 0 0
-427.5415 -316.36996 -41.913406 0 0 0
-427.03146 -316.63766 -41.195213 0 0 0
-426.88989 -317.11047 -41.16341 0 0 0
-427.08417 -317.48547 -41.645142 0 0 0
-427.35535 -317.41049 -42.029442 0 0 0
-427.61481 -315.64532 -41.463409 0 0 0
-427.15884 -316.21051 -41.120098 0 0 0
-426.84799 -316.81049 -40.863411 0 0 0
-426.73273 -317.43594 -40.883591 0 0 0
-426.82187 -317.56049 -41.16341 0 0 0
-427.07379 -318.46048 -41.647003 0 0 0
-428.27118 -315.13678 -41.932491 0 0 0
-428.05969 -314.97272 -41.3046 0 0 0
-427.62518 -315.44232 -41.223263 0 0 0
-427.34344 -315.76962 -41.058281 0 0 0
-427.07098 -316.18149 -40.863411 0 0 0
-428.82623 -314.60965 -41.944969 0 0 0
-428.49768 -314.52496 -41.316689 0 0 0
-428.23322 -314.56049 -40.877312 0 0 0
-427.93634 -314.8605 -40.870102 0 0 0
-427.56369 -315.31921 -40.828812 0 0 0
-429.28906 -314.19064 -41.763409 0 0 0
-428.83722 -314.25101 -41.296745 0 0 0
-428.54489 -314.27206 -40.747417 0 0 0
-428.18884 -314.5155 -40.563408 0 0 0
-427.8913 -314.81006 -40.563408 0 0 0
-429.86932 -314.26105 -42.351265 0 0 0
-429.73904 -313.82166 -41.463409 0 0 0
-429.29797 -313.90491 -41.134392 0 0 0
-428.88599 -313.99054 -40.563408 0 0 0
-428.49503 -314.22739 -40.113411 0 0 0
-427.9397 -314.70923 -40.113411 0 0 0
-430.48907 -314.04977 -42.363411 0 0 0
-430.14838 -313.66623 -41.450394 0 0 0
-429.76337 -313.67053 -41.103771 0 0 0
-429.28906 -313.76428 -40.563408 0 0 0
-429.01532 -313.88794 -40.263409 0 0 0
-431.09464 -313.96112 -42.381725 0 0 0
-430.78906 -313.53387 -41.463409 0 0 0
-430.48907 -313.47998 -41.16341 0 0 0
-430.03906 -313.54922 -41.013412 0 0 0
-429.88904 -313.5061 -40.563408 0 0 0
-429.59515 -313.59906 -40.263409 0 0 0
-431.68732 -313.96048 -42.382965 0 0 0
-431.23904 -313.70734 -41.931961 0 0 0
-431.23904 -313.43201 -41.313408 0 0 0
-430.93906 -313.37335 -41.049438 0 0 0
-430.58813 -313.33746 -40.563408 0 0 0
-430.19241 -313.39996 -40.263409 0 0 0
-432.26776 -314.25385 -42.678513 0 0 0
-432.58905 -313.98349 -42.152767 0 0 0
-432.28339 -313.67596 -41.735069 0 0 0
-431.68906 -313.49402 -41.463409 0 0 0
-431.68906 -313.31281 -40.863411 0 0 0
-431.23904 -313.28082 -40.713409 0 0 0
-432.87708 -314.27686 -42.456429 0 0 0
-432.88904 -313.87692 -41.815014 0 0 0
-432.58905 -313.62271 -41.466034 0 0 0
-432.13907 -313.48041 -41.313408 0 0 0
-432.14307 -313.3605 -40.866669 0 0 0
-431.68906 -313.26913 -40.563408 0 0 0
-433.51733 -314.27896 -42.034546 0 0 0
-433.30212 -313.97705 -41.695946 0 0 0
-433.03906 -313.76321 -41.463409 0 0 0
-433.1553 -313.6409 -40.863411 0 0 0
-432.58905 -313.45697 -40.863411 0 0 0
-432.43906 -313.30701 -39.813408 0 0 0
-433.95312 -314.25064 -41.510025 0 0 0
-433.52411 -313.98486 -41.463409 0 0 0
-433.755 -313.9339 -40.863411 0 0 0
-433.44724 -313.64917 -39.963409 0 0 0
-432.86932 -313.42542 -39.66341 0 0 0
-434.25397 -314.53244 -41.613411 0 0 0
-434.21521 -314.27362 -41.031143 0 0 0
-434.25812 -314.84283 -42.109131 0 0 0
-434.66852 -315.0105 -41.763409 0 0 0
-434.5513 -314.5408 -41.013412 0 0 0
-434.37201 -314.1842 -39.963409 0 0 0
-434.00385 -313.92188 -39.963409 0 0 0
-433.4505 -313.64447 -39.66341 0 0 0
-434.69839 -315.44885 -42.239952 0 0 0
-435.11377 -315.57227 -41.763409 0 0 0
-435.1214 -315.17279 -41.038895 0 0 0
-435.10608 -314.97272 -40.563408 0 0 0
-434.7894 -314.60696 -40.413406 0 0 0
-435.13379 -315.89301 -42.041996 0 0 0
-435.47589 -316.22382 -41.736771 0 0 0
-435.46539 -315.94275 -41.463409 0 0 0
-435.39325 -315.46161 -40.814037 0 0 0
-435.47803 -315.40131 -40.263409 0 0 0
-435.10583 -314.90005 -40.113411 0 0 0
-435.41827 -316.48779 -42.041451 0 0 0
-435.68097 -316.82745 -41.746666 0 0 0
-435.65125 -316.3605 -41.463409 0 0 0
-435.73871 -315.95984 -40.563408 0 0 0
-435.77423 -315.9368 -40.263409 0 0 0
-435.46997 -315.4119 -39.363411 0 0 0
-435.78424 -317.41049 -41.778763 0 0 0
-435.91162 -317.41049 -41.463409 0 0 0
-435.78604 -316.81049 -41.479858 0 0 0
-436.05066 -316.84418 -40.563408 0 0 0
-435.95325 -316.43549 -40.425488 0 0 0
-435.995 -318.02173 -41.32515 0 0 0
-436.07153 -317.59183 -41.013412 0 0 0
-436.13864 -317.2605 -40.563408 0 0 0
-436.15955 -317.11047 -40.263409 0 0 0
-436.00531 -316.49402 -39.66341 0 0 0
-435.90149 -318.61047 -41.463409 0 0 0
-436.14587 -318.61047 -40.563408 0 0 0
-436.12323 -318.0105 -40.863411 0 0 0
-436.22015 -317.71051 -40.263409 0 0 0
-436.20349 -317.41049 -39.813408 0 0 0
-436.138 -316.96048 -39.813408 0 0 0
-435.82712 -319.06049 -41.463409 0 0 0
-436.02017 -319.2381 -40.563408 0 0 0
-436.07513 -319.21051 -40.210495 0 0 0
-436.18558 -318.61047 -40.263409 0 0 0
-436.20581 -318.16049 -40.413406 0 0 0
-436.2356 -318.0105 -39.813408 0 0 0
-435.68365 -319.51172 -41.463409 0 0 0
-435.80884 -319.58551 -41.011513 0 0 0
-435.89255 -319.66049 -40.563408 0 0 0
-435.87274 -319.81049 -40.263409 0 0 0
-436.12451 -319.06049 -39.813408 0 0 0
-435.59564 -319.3605 -41.763409 0 0 0
-435.42319 -319.83966 -41.735397 0 0 0
-435.44931 -320.06934 -41.463409 0 0 0
-435.65256 -320.1142 -40.769863 0 0 0
-435.52515 -320.56049 -40.113411 0 0 0
-435.77863 -320.08954 -39.66341 0 0 0
-435.11115 -320.20871 -41.934822 0 0 0
-435.07068 -320.58014 -41.613411 0 0 0
-435.37149 -320.41797 -41.185791 0 0 0
-435.4325 -320.54044 -40.738945 0 0 0
-435.11475 -321.05127 -40.563408 0 0 0
-435.46725 -320.67633 -39.66341 0 0 0
-434.84799 -320.09644 -42.384033 0 0 0
-434.53906 -321.16049 -41.726795 0 0 0
-434.76617 -321.16034 -41.313091 0 0 0
-435.14642 -320.87042 -40.982635 0 0 0
-434.22296 -321.44742 -41.725708 0 0 0
-434.35278 -321.49274 -41.463409 0 0 0
-434.23904 -321.74506 -41.116364 0 0 0
-434.89432 -321.22107 -40.863411 0 0 0
-433.96191 -321.77612 -41.520756 0 0 0
-433.81586 -322.01733 -41.16341 0 0 0
-433.94269 -322.07007 -40.684677 0 0 0
-434.53906 -321.71719 -40.263409 0 0 0
-434.83679 -321.46588 -39.813408 0 0 0
-435.11285 -321.14581 -39.513412 0 0 0
-433.46259 -322.06268 -41.493645 0 0 0
-433.06378 -322.34497 -41.261566 0 0 0
-433.48907 -322.2868 -40.863411 0 0 0
-433.48907 -322.42206 -39.963409 0 0 0
-434.05817 -322.09637 -39.963409 0 0 0
-434.53906 -321.72235 -39.363411 0 0 0
-432.88904 -322.04254 -42.012627 0 0 0
-432.31015 -322.35492 -41.709496 0 0 0
-432.58905 -322.62335 -40.864594 0 0 0
-433.03906 -322.49182 -40.863411 0 0 0
-432.73904 -321.82132 -42.438866 0 0 0
-432.28906 -322.01343 -42.339432 0 0 0
-431.83905 -322.31747 -41.93718 0 0 0
-431.98907 -322.70813 -40.901039 0 0 0
-432.28906 -322.74451 -40.563408 0 0 0
-432.88904 -322.59869 -40.536316 0 0 0
-431.83905 -322.06049 -42.362835 0 0 0
-431.38904 -322.38046 -41.806507 0 0 0
-431.38904 -322.73193 -40.863411 0 0 0
-431.83905 -322.79956 -40.563408 0 0 0
-432.43906 -322.78311 -39.66341 0 0 0
-430.93906 -322.36185 -41.763409 0 0 0
-430.78906 -322.61023 -41.040318 0 0 0
-430.78906 -322.80374 -40.263409 0 0 0
-431.38904 -322.85382 -40.263409 0 0 0
-431.53906 -322.86887 -39.813408 0 0 0
-429.85718 -322.02591 -41.775169 0 0 0
-430.18906 -322.30627 -41.457481 0 0 0
-430.18906 -322.46973 -41.013412 0 0 0
-430.21719 -322.6778 -40.263409 0 0 0
-430.63907 -322.79874 -39.963409 0 0 0
-431.08905 -322.85565 -39.963409 0 0 0
-428.97818 -321.69751 -41.48629 0 0 0
-429.33304 -322.06891 -41.16341 0 0 0
-429.58307 -322.2753 -40.938412 0 0 0
-429.88904 -322.5032 -40.563408 0 0 0
-428.69827 -321.29004 -41.737259 0 0 0
-428.55875 -321.44366 -41.411736 0 0 0
-428.70105 -321.74329 -41.013412 0 0 0
-428.9761 -321.97839 -40.863411 0 0 0
-428.96692 -322.08539 -40.413406 0 0 0
-429.59631 -322.42926 -40.350349 0 0 0
-429.07971 -320.8844 -42.390045 0 0 0
-428.80463 -320.59625 -42.43866 0 0 0
-428.517 -320.42419 -42.296406 0 0 0
-428.23904 -320.8605 -41.739445 0 0 0
-428.23904 -321.13641 -41.43037 0 0 0
-429.13907 -320.63107 -42.743526 0 0 0
-428.7735 -319.96048 -43.026077 0 0 0
-428.23904 -319.96048 -42.353134 0 0 0
-427.91113 -320.11566 -41.94471 0 0 0
-427.70801 -320.42059 -41.482357 0 0 0
-427.95709 -320.83771 -41.409454 0 0 0
-428.15649 -319.50781 -42.584122 0 0 0
-427.57367 -319.81049 -41.759514 0 0 0
-427.33905 -319.18951 -41.809998 0 0 0
-427.36908 -319.82654 -41.474407 0 0 0
-427.33893 -320.09351 -41.185734 0 0 0
-427.38715 -320.4379 -40.863411 0 0 0
-427.10754 -318.81668 -41.61248 0 0 0
-427.07562 -319.5303 -41.16341 0 0 0
-427.0773 -319.82275 -40.889259 0 0 0
-427.10986 -320.11047 -40.561157 0 0 0
-427.34827 -320.56049 -40.518486 0 0 0
-427.87918 -321.22491 -40.563408 0 0 0
-426.85413 -318.61047 -41.16341 0 0 0
-426.93225 -319.06049 -41.16341 0 0 0
-426.87897 -319.5105 -40.563408 0 0 0
-426.75922 -319.32434 -40.113411 0 0 0
-427.04297 -320.08856 -39.738411 0 0 0
-427.31818 -320.59326 -39.813408 0 0 0
-426.80927 -318.0105 -41.16341 0 0 0
-426.71994 -318.7012 -40.700531 0 0 0
-426.71915 -319.06049 -40.381897 0 0 0
-426.67749 -319.06049 -39.813408 0 0 0
-426.88101 -319.66049 -39.363411 0 0 0
-427.18945 -320.2605 -39.063408 0 0 0
-426.63605 -317.71051 -40.563408 0 0 0
-426.64532 -318.31049 -40.563408 0 0 0
-426.60529 -318.61047 -39.963409 0 0 0
-426.63239 -318.61047 -39.513412 0 0 0
-426.76642 -319.22601 -39.346352 0 0 0
-426.70532 -317.11047 -40.569935 0 0 0
-426.63541 -317.2605 -40.263409 0 0 0
-426.59039 -317.71051 -40.263409 0 0 0
-426.57483 -318.16049 -40.113411 0 0 0
-426.59991 -318.16049 -39.513412 0 0 0
-426.87457 -316.5105 -40.563408 0 0 0
-426.72623 -316.84418 -40.113411 0 0 0
-426.7186 -316.83472 -39.66341 0 0 0
-426.65414 -317.2605 -39.363411 0 0 0
-426.58478 -317.71051 -39.813408 0 0 0
-427.116 -315.91745 -40.431107 0 0 0
-427.07651 -315.88437 -39.963409 0 0 0
-426.88821 -316.3605 -39.513412 0 0 0
-426.77243 -316.80133 -39.341164 0 0 0
-427.3512 -315.48071 -40.437313 0 0 0
-427.31934 -315.46048 -39.963409 0 0 0
-427.01703 -316.01678 -39.66341 0 0 0
-427.00473 -316.36127 -38.914524 0 0 0
-426.93356 -316.96048 -38.463409 0 0 0
-426.85626 -317.41049 -38.463409 0 0 0
-427.60471 -315.11786 -40.413406 0 0 0
-427.6861 -314.97864 -39.963409 0 0 0
-427.60074 -315.11234 -39.513412 0 0 0
-427.49991 -315.46048 -38.763409 0 0 0
-427.30661 -315.94086 -38.463409 0 0 0
-427.22116 -316.3605 -38.16341 0 0 0
-428.16214 -314.49335 -39.66341 0 0 0
-428.15656 -314.78238 -38.463409 0 0 0
-427.87915 -315.08588 -38.463409 0 0 0
-427.62817 -315.44513 -38.40831 0 0 0
-427.62115 -315.71381 -38.028755 0 0 0
-429.0174 -313.92447 -39.363411 0 0 0
-428.7009 -314.19772 -38.988407 0 0 0
-429.02234 -314.23206 -38.16341 0 0 0
-428.82025 -314.61377 -37.700371 0 0 0
-428.23904 -314.8605 -38.13612 0 0 0
-429.6131 -313.62506 -39.363411 0 0 0
-429.57489 -313.71826 -38.922855 0 0 0
-429.39459 -313.96075 -38.338306 0 0 0
-429.38297 -314.2381 -37.736908 0 0 0
-430.18906 -313.40662 -39.363411 0 0 0
-430.03906 -313.52496 -38.913406 0 0 0
-429.75616 -313.90201 -38.027718 0 0 0
-429.73904 -314.22583 -37.443169 0 0 0
-429.31305 -314.8605 -36.869854 0 0 0
-428.83905 -314.87366 -37.28149 0 0 0
-430.63907 -313.2973 -39.513412 0 0 0
-430.33905 -313.4028 -39.063408 0 0 0
-430.18906 -313.70279 -38.154411 0 0 0
-430.18134 -313.90308 -37.725922 0 0 0
-430.48907 -314.05902 -37.295547 0 0 0
-430.03906 -314.61484 -36.724411 0 0 0
-431.08905 -313.25189 -40.113411 0 0 0
-431.08905 -313.24774 -39.513412 0 0 0
-431.23904 -313.27002 -39.063408 0 0 0
-431.23904 -313.35699 -38.658836 0 0 0
-430.63907 -313.63098 -38.039879 0 0 0
-430.78906 -313.83405 -37.563408 0 0 0
-431.53906 -313.22742 -39.513412 0 0 0
-431.68906 -313.27695 -39.063408 0 0 0
-432.43906 -313.51471 -38.463409 0 0 0
-431.68906 -313.52747 -38.16341 0 0 0
-431.10773 -313.68494 -37.78841 0 0 0
-431.06262 -313.95844 -37.281712 0 0 0
-431.98907 -313.26184 -39.363411 0 0 0
-432.54712 -313.3555 -39.363411 0 0 0
-433.03906 -313.52686 -39.213409 0 0 0
-433.0737 -313.66559 -38.65184 0 0 0
-432.88904 -313.82184 -38.013412 0 0 0
-432.13907 -313.62402 -38.035912 0 0 0
-433.46271 -313.70084 -39.227158 0 0 0
-433.74139 -313.96686 -38.697472 0 0 0
-433.48907 -313.98547 -38.238411 0 0 0
-433.21246 -314.01605 -37.863411 0 0 0
-432.57327 -313.94366 -37.543266 0 0 0
-432.13907 -313.91321 -37.433823 0 0 0
-433.93906 -313.95038 -39.241711 0 0 0
-434.26746 -314.17065 -39.213409 0 0 0
-434.23904 -314.24832 -38.763409 0 0 0
-433.79828 -314.32993 -37.844589 0 0 0
-433.0231 -314.1763 -37.422821 0 0 0
-432.31821 -314.26556 -36.978081 0 0 0
-434.50467 -314.29004 -39.66341 0 0 0
-434.81659 -314.58762 -39.66341 0 0 0
-434.54767 -314.54318 -38.634964 0 0 0
-434.22791 -314.56979 -37.972847 0 0 0
-433.93994 -314.69995 -37.427177 0 0 0
-433.48041 -314.50159 -37.278763 0 0 0
-434.80731 -314.56049 -39.963409 0 0 0
-435.15747 -314.98492 -39.513412 0 0 0
-434.84393 -314.84277 -38.640839 0 0 0
-434.85364 -315.14294 -38.04171 0 0 0
-434.38904 -314.98279 -37.549297 0 0 0
-435.18994 -315.3363 -38.463409 0 0 0
-435.0979 -315.7605 -37.635422 0 0 0
-434.83905 -315.45673 -37.563408 0 0 0
-434.28815 -315.13715 -37.23822 0 0 0
-433.65961 -314.8605 -36.963409 0 0 0
-435.43906 -315.73328 -38.421093 0 0 0
-435.42548 -316.08691 -37.918121 0 0 0
-435.46149 -316.3605 -37.748901 0 0 0
-435.22546 -316.5105 -37.263409 0 0 0
-434.89142 -316.3605 -36.903839 0 0 0
-434.82404 -316.0838 -36.999325 0 0 0
-435.76245 -315.94403 -39.363411 0 0 0
-435.67697 -316.19672 -38.463409 0 0 0
-435.69412 -316.49542 -38.16341 0 0 0
-435.8334 -316.96048 -38.16341 0 0 0
-435.5885 -317.11047 -37.563408 0 0 0
-435.245 -317.2605 -36.963409 0 0 0
-435.99506 -316.79248 -38.976959 0 0 0
-436.13867 -317.11047 -39.363411 0 0 0
-436.0499 -317.15891 -38.827297 0 0 0
-435.94653 -317.33551 -38.313408 0 0 0
-435.77063 -317.8605 -37.740368 0 0 0
-435.50006 -317.71051 -37.240311 0 0 0
-436.18066 -317.56049 -39.213409 0 0 0
-436.14581 -317.8605 -38.913406 0 0 0
-435.95099 -318.0105 -38.16341 0 0 0
-435.76028 -318.31049 -37.749199 0 0 0
-435.49841 -318.31049 -37.240974 0 0 0
-435.04233 -317.8605 -36.66341 0 0 0
-436.21552 -318.0105 -39.363411 0 0 0
-436.05411 -318.34766 -38.554585 0 0 0
-435.9104 -318.61047 -38.16341 0 0 0
-435.70929 -318.87476 -37.789501 0 0 0
-436.18048 -318.61047 -39.363411 0 0 0
-436.08099 -318.91049 -39.044849 0 0 0
-435.83649 -319.21051 -38.313408 0 0 0
-435.50598 -319.2341 -37.563408 0 0 0
-435.42709 -318.92719 -37.287308 0 0 0
-436.07037 -319.17841 -39.363411 0 0 0
-435.94403 -319.3605 -38.913406 0 0 0
-435.79221 -319.79858 -38.898338 0 0 0
-435.64771 -319.81049 -38.39447 0 0 0
-435.45474 -319.66049 -37.75058 0 0 0
-435.28278 -319.3605 -37.263409 0 0 0
-435.86908 -319.81049 -39.363411 0 0 0
-435.45068 -320.66843 -39.363411 0 0 0
-435.50018 -320.27466 -38.593201 0 0 0
-435.42578 -320.04828 -38.098404 0 0 0
-435.10007 -320.12646 -37.537071 0 0 0
-435.17749 -320.97913 -39.063408 0 0 0
-435.22348 -320.56049 -38.313408 0 0 0
-434.86993 -320.88739 -38.026962 0 0 0
-434.56097 -320.58981 -37.210804 0 0 0
-434.85297 -319.78369 -36.946388 0 0 0
-434.80621 -321.42474 -39.063408 0 0 0
-434.86591 -321.19208 -38.627785 0 0 0
-434.2785 -321.49329 -38.031425 0 0 0
-434.5705 -320.87888 -37.53928 0 0 0
-434.27454 -320.89557 -37.18832 0 0 0
-433.96332 -320.61029 -36.645508 0 0 0
-434.83905 -321.45355 -39.417877 0 0 0
-434.36349 -321.81635 -39.063408 0 0 0
-427.93002 -315.28802 -37.998112 0 0 0
-428.06482 -315.60718 -37.401085 0 0 0
-427.63907 -316.10074 -37.563408 0 0 0
-427.19891 -316.81049 -37.863411 0 0 0
-428.24377 -315.1521 -37.691299 0 0 0
-428.54135 -315.30652 -37.113411 0 0 0
-428.23904 -315.81686 -36.963409 0 0 0
-427.64941 -316.47693 -37.278587 0 0 0
-427.31421 -317.2605 -37.447678 0 0 0
-426.97369 -317.41049 -38.105507 0 0 0
-428.83771 -315.31656 -36.813408 0 0 0
-428.5596 -315.78909 -36.66341 0 0 0
-428.25732 -316.17664 -36.681343 0 0 0
-427.99811 -316.66049 -36.728889 0 0 0
-427.73883 -316.81049 -36.987595 0 0 0
-429.05408 -315.63843 -36.374153 0 0 0
-428.83905 -315.96796 -36.312294 0 0 0
-428.69922 -316.54379 -36.146973 0 0 0
-428.30161 -316.66049 -36.420883 0 0 0
-428.21875 -317.12732 -36.344589 0 0 0
-427.88123 -317.56049 -36.596283 0 0 0
-429.70447 -315.13983 -36.363411 0 0 0
-429.43906 -315.75256 -36.063408 0 0 0
-429.13907 -316.20337 -35.993362 0 0 0
-429.68079 -314.84482 -36.647232 0 0 0
-430.19397 -314.8898 -36.390305 0 0 0
-430.41406 -315.25418 -36.043438 0 0 0
-430.28412 -315.73499 -35.763409 0 0 0
-429.58905 -316.28619 -35.737305 0 0 0
-429.43906 -316.81049 -35.62339 0 0 0
-430.63907 -314.81781 -36.322937 0 0 0
-430.93906 -315.11884 -36.032181 0 0 0
-430.78906 -315.7605 -35.639648 0 0 0
-430.48907 -316.09177 -35.53558 0 0 0
-429.86395 -316.66049 -35.489502 0 0 0
-430.93906 -314.36755 -36.762341 0 0 0
-431.38904 -314.56049 -36.509361 0 0 0
-431.38904 -315.11328 -36.027534 0 0 0
-431.38904 -315.7605 -35.613266 0 0 0
-431.07001 -316.05835 -35.473789 0 0 0
-430.63907 -316.5105 -35.344818 0 0 0
-431.66357 -313.95523 -37.26693 0 0 0
-431.98907 -314.50903 -36.608101 0 0 0
-431.68906 -314.79053 -36.303162 0 0 0
-431.98907 -315.13489 -36.069263 0 0 0
-431.83905 -315.6347 -35.713142 0 0 0
-431.68939 -316.06046 -35.473644 0 0 0
-432.58905 -314.58789 -36.69664 0 0 0
-432.28906 -314.84338 -36.354172 0 0 0
-432.43906 -315.33612 -36.016212 0 0 0
-432.13907 -316.24792 -35.451828 0 0 0
-431.83905 -316.5105 -35.317631 0 0 0
-431.38904 -316.5105 -35.294945 0 0 0
-433.21118 -314.57715 -36.995136 0 0 0
-433.06445 -315.14453 -36.363411 0 0 0
-432.88904 -315.80145 -35.881691 0 0 0
-433.02631 -316.23053 -35.719666 0 0 0
-432.81152 -316.81049 -35.453045 0 0 0
-432.28906 -316.96048 -35.277348 0 0 0
-433.96765 -315.43414 -36.66341 0 0 0
-433.48627 -316.06372 -35.990868 0 0 0
-433.52435 -316.72687 -35.766537 0 0 0
-433.67267 -317.41049 -35.690147 0 0 0
-432.73904 -317.41049 -35.325947 0 0 0
-434.25232 -315.74277 -36.66341 0 0 0
-433.95218 -316.5448 -36.056095 0 0 0
-434.08337 -317.11047 -35.984081 0 0 0
-434.29279 -317.71051 -36.026867 0 0 0
-433.63907 -317.8605 -35.630512 0 0 0
-434.25238 -316.18942 -36.419113 0 0 0
-434.37659 -316.72015 -36.293785 0 0 0
-434.60352 -317.2605 -36.314476 0 0 0
-434.85016 -316.82538 -36.659668 0 0 0
-434.94928 -317.2605 -36.633186 0 0 0
-434.77982 -317.71051 -36.417351 0 0 0
-434.65585 -318.31049 -36.320206 0 0 0
-434.28784 -318.31049 -36.031494 0 0 0
-433.76575 -318.31049 -35.72216 0 0 0
-434.90485 -318.7605 -36.595871 0 0 0
-434.59601 -318.7605 -36.317982 0 0 0
-434.08905 -318.85925 -35.97908 0 0 0
-433.50296 -318.90283 -35.672462 0 0 0
-433.1488 -318.31049 -35.451176 0 0 0
-435.18463 -318.7605 -36.908516 0 0 0
-434.84253 -319.18945 -36.668682 0 0 0
-434.52271 -319.22876 -36.383038 0 0 0
-434.24551 -319.77118 -36.357986 0 0 0
-433.76917 -319.66049 -36.013313 0 0 0
-433.44641 -319.3605 -35.753571 0 0 0
-433.93906 -320.08105 -36.298443 0 0 0
-433.57098 -320.11389 -36.100109 0 0 0
-433.32703 -319.78278 -35.846954 0 0 0
-432.88385 -319.50049 -35.581734 0 0 0
-433.02698 -318.94302 -35.473156 0 0 0
-433.48907 -320.53815 -36.295273 0 0 0
-433.02551 -320.40222 -35.994179 0 0 0
-432.52637 -320.09518 -35.686844 0 0 0
-432.58905 -319.06049 -35.360725 0 0 0
-432.58905 -318.16049 -35.256248 0 0 0
-432.95093 -317.8605 -35.364555 0 0 0
-433.67682 -320.87518 -36.650948 0 0 0
-433.1507 -320.8703 -36.356525 0 0 0
-432.26642 -320.86691 -36.052097 0 0 0
-431.98907 -320.44394 -35.755592 0 0 0
-431.98907 -319.68414 -35.415901 0 0 0
-432.13907 -318.91049 -35.239571 0 0 0
-433.67841 -321.17502 -36.947166 0 0 0
-433.16907 -321.48242 -36.938869 0 0 0
-432.5686 -321.46964 -36.644981 0 0 0
-431.53906 -321.41302 -36.408962 0 0 0
-431.38904 -320.8605 -35.969009 0 0 0
-434.11005 -321.31873 -37.539749 0 0 0
-433.49359 -321.5527 -37.263409 0 0 0
-433.0784 -321.7605 -37.238228 0 0 0
-432.48108 -321.7605 -36.947273 0 0 0
-431.98907 -321.84167 -36.936714 0 0 0
-433.74936 -321.77621 -37.863411 0 0 0
-432.76614 -322.06964 -37.528923 0 0 0
-432.28906 -322.20364 -37.563408 0 0 0
-431.68906 -322.34787 -37.721046 0 0 0
-431.46405 -321.98682 -37.097767 0 0 0
-431.23904 -321.70398 -36.726856 0 0 0
-433.78302 -322.14288 -38.775558 0 0 0
-433.30969 -322.06494 -37.968971 0 0 0
-432.43906 -322.40015 -38.033066 0 0 0
-431.74487 -322.59952 -38.313408 0 0 0
-431.23904 -322.33173 -37.681335 0 0 0
-433.98749 -322.09158 -39.063408 0 0 0
-433.45526 -322.38055 -39.063408 0 0 0
-433.19614 -322.42255 -38.763409 0 0 0
-432.73904 -322.49533 -38.463409 0 0 0
-431.98907 -322.72797 -38.763409 0 0 0
-433.61377 -322.35181 -39.513412 0 0 0
-432.85461 -322.6748 -39.66341 0 0 0
-432.59848 -322.62366 -38.763409 0 0 0
-432.13907 -322.78882 -39.213409 0 0 0
-431.76404 -322.82117 -39.213409 0 0 0
-431.38904 -322.7529 -38.763409 0 0 0
-431.08905 -322.83813 -39.513412 0 0 0
-430.93906 -322.73157 -38.763409 0 0 0
-430.93906 -322.58282 -38.313408 0 0 0
-430.33905 -322.13904 -37.563408 0 0 0
-430.93906 -321.87112 -36.963409 0 0 0
-430.63907 -322.78235 -39.513412 0 0 0
-430.18271 -322.66565 -39.513412 0 0 0
-430.11407 -322.56995 -38.905228 0 0 0
-430.03906 -322.44156 -38.463409 0 0 0
-429.38992 -322.3847 -39.813408 0 0 0
-429.59442 -322.43542 -39.228378 0 0 0
-429.59955 -322.27875 -38.488556 0 0 0
-429.42072 -322.04053 -38.070702 0 0 0
-428.98907 -322.15869 -39.797501 0 0 0
-428.98938 -322.14661 -39.365685 0 0 0
-429.13907 -322.0466 -38.463409 0 0 0
-428.99054 -321.85278 -38.166473 0 0 0
-428.98071 -321.68826 -37.846027 0 0 0
-429.42255 -321.77838 -37.548481 0 0 0
-428.35864 -321.71399 -40.263409 0 0 0
-428.43048 -321.77707 -39.363411 0 0 0
-428.5061 -321.78531 -39.063408 0 0 0
-428.33643 -321.35754 -38.16341 0 0 0
-428.56387 -321.43994 -37.932739 0 0 0
-429.16095 -321.4458 -37.299519 0 0 0
-428.53906 -321.77698 -40.620598 0 0 0
-428.21014 -321.48547 -40.69722 0 0 0
-427.99399 -321.40845 -40.263409 0 0 0
-427.9884 -321.4129 -39.813408 0 0 0
-427.87799 -321.22803 -39.063408 0 0 0
-427.69638 -321.09381 -40.263409 0 0 0
-427.67053 -321.04886 -39.363411 0 0 0
-427.4758 -320.56049 -38.613411 0 0 0
-427.89154 -320.91595 -38.16341 0 0 0
-428.24695 -320.99451 -37.723434 0 0 0
-427.33905 -320.57239 -39.241398 0 0 0
-427.1311 -319.78406 -38.463409 0 0 0
-427.4288 -320.11694 -38.082195 0 0 0
-427.63907 -320.57123 -38.150307 0 0 0
-426.94324 -319.21051 -38.463409 0 0 0
-427.2674 -319.66049 -38.002037 0 0 0
-427.55417 -319.82367 -37.550407 0 0 0
-427.87357 -320.09561 -37.275833 0 0 0
-428.23904 -320.58777 -37.238834 0 0 0
-426.76584 -318.88528 -38.966045 0 0 0
-426.94141 -318.61047 -38.16341 0 0 0
-427.21851 -318.7605 -37.563408 0 0 0
-427.31577 -319.18805 -37.563408 0 0 0
-427.98871 -319.3605 -36.715828 0 0 0
-428.22186 -319.72308 -36.646309 0 0 0
-426.66949 -318.31049 -39.063408 0 0 0
-426.90594 -318.0105 -38.16341 0 0 0
-427.03906 -318.16049 -37.825706 0 0 0
-427.58035 -318.0105 -36.93853 0 0 0
-427.63907 -318.81293 -36.94656 0 0 0
-428.02808 -318.46048 -36.452435 0 0 0
-432.23874 -317.8605 -35.16465 0 0 0
-431.83905 -317.07812 -35.174767 0 0 0
-431.68906 -318.16049 -35.090031 0 0 0
-431.83905 -317.71051 -35.10627 0 0 0
-431.38904 -317.41049 -35.108135 0 0 0
-431.38904 -316.96048 -35.171799 0 0 0
-430.78906 -316.98425 -35.191204 0 0 0
-431.61407 -319.21051 -35.247398 0 0 0
-430.67542 -318.73923 -35.16341 0 0 0
-431.38904 -317.8605 -35.070648 0 0 0
-430.78906 -317.8605 -35.105141 0 0 0
-430.93906 -317.41049 -35.116932 0 0 0
-431.31403 -319.78387 -35.413418 0 0 0
-431.08905 -319.21051 -35.247986 0 0 0
-431.38904 -320.38684 -35.695686 0 0 0
-430.93906 -319.78348 -35.433941 0 0 0
-430.93906 -320.38962 -35.716854 0 0 0
-430.50006 -319.77783 -35.501453 0 0 0
-430.93906 -320.90277 -36.033009 0 0 0
-430.48907 -320.29724 -35.738319 0 0 0
-429.90253 -320.06909 -35.779732 0 0 0
-430.03906 -319.21051 -35.411804 0 0 0
-430.63907 -321.21848 -36.315456 0 0 0
-430.18906 -321.1312 -36.378761 0 0 0
-429.93298 -320.62943 -36.107346 0 0 0
-430.78906 -321.6308 -36.704643 0 0 0
-430.33905 -321.487 -36.633614 0 0 0
-429.63251 -321.15027 -36.646042 0 0 0
-429.49237 -320.72656 -36.369194 0 0 0
-429.97339 -321.75128 -37.156223 0 0 0
-429.57233 -321.49152 -37.064354 0 0 0
-429.16071 -320.8605 -36.66341 0 0 0
-429.13907 -320.38522 -36.322025 0 0 0
-430.19775 -317.8605 -35.197498 0 0 0
-430.18906 -316.96048 -35.31712 0 0 0
-430.03906 -318.31049 -35.258354 0 0 0
-429.58905 -317.84784 -35.395996 0 0 0
-429.02087 -317.2605 -35.730503 0 0 0
-430.18906 -318.7605 -35.267952 0 0 0
-429.59769 -319.06049 -35.52422 0 0 0
-429.58905 -318.17017 -35.399712 0 0 0
-428.99945 -318.16049 -35.68235 0 0 0
-428.85822 -317.71051 -35.773056 0 0 0
-428.49307 -317.56049 -36.027561 0 0 0
-429.73904 -319.5105 -35.606918 0 0 0
-429.31573 -319.3399 -35.722523 0 0 0
-428.97015 -319.06049 -35.825317 0 0 0
-429.13907 -318.61047 -35.642296 0 0 0
-428.49631 -318.46048 -36.032211 0 0 0
-429.14484 -319.80383 -36.000877 0 0 0
-428.82962 -319.47208 -36.057323 0 0 0
-428.56137 -318.922 -36.078724 0 0 0
-427.91986 -318.91049 -36.641769 0 0 0
-428.16925 -317.56049 -36.299088 0 0 0
-428.53119 -319.82401 -36.427544 0 0 0
-428.41843 -319.3605 -36.317478 0 0 0
-428.68262 -320.57565 -36.795784 0 0 0
-428.6788 -321.02032 -37.228371 0 0 0
0 0 0 1 0 0 0 1 0 0 0 1 0 0 0 0 0 760 1 0 0
