ply
format ascii 1.0
comment PCL generated
element vertex 770
property float x
property float y
property float z
property uchar red
property uchar green
property uchar blue
element camera 1
property float view_px
property float view_py
property float view_pz
property float x_axisx
property float x_axisy
property float x_axisz
property float y_axisx
property float y_axisy
property float y_axisz
property float z_axisx
property float z_axisy
property float z_axisz
property float focal
property float scalex
property float scaley
property float centerx
property float centery
property int viewportx
property int viewporty
property float k1
property float k2
end_header
300.16098 -466.3605 102.27846 0 0 0
299.26099 -465.16049 102.35211 0 0 0
304.66098 -468.31049 102.95958 0 0 0
303.40045 -468.62036 102.65686 0 0 0
305.159 -467.2605 102.8392 0 0 0
305.26099 -467.56049 102.95064 0 0 0
305.62701 -466.5105 103.09593 0 0 0
305.56097 -467.31805 103.11659 0 0 0
305.26099 -467.8761 103.12617 0 0 0
305.53546 -465.31049 102.89149 0 0 0
305.90436 -465.46051 103.1366 0 0 0
306.16098 -466.21051 103.50034 0 0 0
306.20648 -466.90094 103.90324 0 0 0
305.465 -468.16049 103.53031 0 0 0
305.56097 -464.8605 102.87167 0 0 0
305.86871 -465.11093 103.1366 0 0 0
305.51825 -464.56049 102.87408 0 0 0
306.00256 -464.71051 103.4366 0 0 0
306.15222 -465.31049 103.45337 0 0 0
304.70013 -463.32477 102.77307 0 0 0
304.99323 -463.58157 102.80576 0 0 0
305.26682 -463.96051 102.83659 0 0 0
303.91098 -462.73029 102.82257 0 0 0
304.38086 -462.74707 103.10477 0 0 0
305.00888 -463.17947 103.23546 0 0 0
301.81097 -462.49481 102.5732 0 0 0
302.78595 -462.38824 102.77226 0 0 0
303.276 -462.45496 102.83001 0 0 0
303.95151 -462.45178 103.17449 0 0 0
300.92264 -462.74359 102.51506 0 0 0
301.36096 -462.4231 102.72243 0 0 0
301.66098 -462.18784 102.94791 0 0 0
302.11096 -462.20697 102.89456 0 0 0
300.29755 -463.39072 102.2511 0 0 0
300.46097 -462.99283 102.47624 0 0 0
300.27136 -462.4696 103.14734 0 0 0
300.69 -462.15915 103.32147 0 0 0
301.21448 -462.14355 103.11334 0 0 0
299.69901 -463.33282 102.67737 0 0 0
300.01129 -463.05255 102.69255 0 0 0
299.82123 -462.74722 103.12142 0 0 0
299.87866 -462.46051 103.4366 0 0 0
299.84109 -463.90399 102.22479 0 0 0
299.34113 -464.12598 102.46352 0 0 0
299.24451 -463.62128 102.82352 0 0 0
299.37515 -463.15964 103.08781 0 0 0
299.53561 -462.74051 103.38327 0 0 0
299.59348 -464.2605 102.25258 0 0 0
298.96097 -464.8063 102.52504 0 0 0
298.89441 -464.1105 102.83659 0 0 0
298.94061 -463.63251 103.09258 0 0 0
298.93719 -463.30347 103.4059 0 0 0
299.26099 -464.8605 102.33095 0 0 0
298.93115 -465.16049 102.51456 0 0 0
298.61487 -465.16049 102.78833 0 0 0
298.66907 -464.73648 102.81169 0 0 0
298.63324 -464.12537 103.11347 0 0 0
298.66098 -463.5105 103.57856 0 0 0
298.22278 -464.32471 103.58423 0 0 0
298.03888 -464.1441 104.0366 0 0 0
298.41895 -463.49854 104.0078 0 0 0
298.66428 -463.05167 104.16238 0 0 0
299.10483 -462.88885 103.71292 0 0 0
298.36761 -464.56049 103.23937 0 0 0
298.00574 -464.93549 103.61437 0 0 0
297.8634 -464.56049 104.0366 0 0 0
297.85062 -464.1105 104.5616 0 0 0
298.29709 -463.3605 104.47803 0 0 0
298.06485 -465.33264 103.4189 0 0 0
297.79755 -465.6105 103.79111 0 0 0
297.74738 -465.02292 104.01604 0 0 0
297.70883 -464.56049 104.47114 0 0 0
297.73004 -464.13641 104.9366 0 0 0
298.026 -463.54111 104.9366 0 0 0
298.31543 -465.6105 103.08669 0 0 0
298.06097 -465.91049 103.40714 0 0 0
297.83502 -466.21051 103.76915 0 0 0
297.66776 -465.91049 104.0366 0 0 0
297.6123 -465.46051 104.1866 0 0 0
297.63147 -465.0105 104.33659 0 0 0
298.60666 -465.46051 102.7881 0 0 0
298.64496 -465.90869 102.82424 0 0 0
298.36151 -466.80594 103.12299 0 0 0
298.19373 -467.1105 103.4366 0 0 0
297.77094 -466.57843 104.01588 0 0 0
298.96097 -465.7605 102.62559 0 0 0
299.03635 -466.08551 102.64091 0 0 0
298.66098 -466.96051 102.81156 0 0 0
298.46362 -467.41049 103.16087 0 0 0
298.39624 -467.73755 103.42906 0 0 0
298.04425 -467.41049 103.87628 0 0 0
299.69849 -466.823 102.3991 0 0 0
299.19299 -467.2605 102.50593 0 0 0
298.96097 -466.96051 102.60331 0 0 0
298.96097 -467.2605 102.62152 0 0 0
298.73306 -467.56049 102.90799 0 0 0
298.64404 -468.18994 103.38934 0 0 0
299.56097 -467.56049 102.3541 0 0 0
299.27124 -467.83435 102.5366 0 0 0
298.96097 -467.56049 102.69435 0 0 0
299.56097 -467.8605 102.36714 0 0 0
299.58694 -468.42813 102.56967 0 0 0
299.26758 -468.30023 102.75931 0 0 0
299.86096 -467.8605 102.2813 0 0 0
299.86096 -468.16049 102.32032 0 0 0
299.86096 -468.46051 102.42509 0 0 0
299.91345 -468.73819 102.5486 0 0 0
299.53113 -468.7605 102.83659 0 0 0
300.31097 -468.6105 102.36879 0 0 0
300.16098 -468.83344 102.49443 0 0 0
300.16098 -469.06049 102.63045 0 0 0
299.85004 -469.06049 102.82748 0 0 0
300.91098 -468.7605 102.37752 0 0 0
300.60773 -469.08795 102.52112 0 0 0
300.76099 -469.6062 102.89285 0 0 0
300.16098 -469.32111 102.8788 0 0 0
299.57428 -469.3605 103.45292 0 0 0
299.39056 -469.06049 103.28902 0 0 0
301.13599 -469.15854 102.49654 0 0 0
300.91098 -469.3605 102.62625 0 0 0
301.66098 -469.70514 102.79155 0 0 0
301.19965 -469.94498 103.15871 0 0 0
300.7287 -469.88892 103.27785 0 0 0
300.08545 -469.70355 103.4366 0 0 0
301.51099 -469.06049 102.46024 0 0 0
301.51099 -469.3605 102.56091 0 0 0
302.11096 -469.3605 102.58537 0 0 0
302.26099 -469.70038 102.80008 0 0 0
302.11096 -469.99158 103.09408 0 0 0
301.66098 -469.98444 103.10345 0 0 0
302.71097 -469.3605 102.70329 0 0 0
303.16098 -469.66049 102.9669 0 0 0
302.68646 -469.97778 103.14305 0 0 0
302.56097 -470.23383 103.48389 0 0 0
302.11096 -470.38806 103.7366 0 0 0
301.586 -470.28262 103.59498 0 0 0
304.42529 -469.06049 103.10992 0 0 0
303.63016 -469.65417 103.14435 0 0 0
303.16098 -469.90424 103.19711 0 0 0
303.01099 -470.11493 103.4366 0 0 0
304.689 -468.82916 103.12248 0 0 0
304.66098 -469.06049 103.21676 0 0 0
304.61871 -469.34467 103.4537 0 0 0
304.08286 -469.67297 103.4043 0 0 0
303.6308 -469.91156 103.42519 0 0 0
303.31097 -470.2106 103.74515 0 0 0
304.98541 -468.28815 103.12492 0 0 0
304.96097 -468.7605 103.2479 0 0 0
304.96097 -469.06049 103.45933 0 0 0
304.98224 -469.38022 103.91356 0 0 0
304.67761 -469.6731 103.99123 0 0 0
304.03882 -470.01263 103.89583 0 0 0
305.2157 -468.7605 103.48537 0 0 0
305.57526 -468.79681 104.01199 0 0 0
305.28543 -469.3844 104.50453 0 0 0
304.78424 -469.75116 104.33659 0 0 0
304.35486 -469.95749 104.14081 0 0 0
305.56097 -468.50223 103.7366 0 0 0
305.83176 -468.46051 104.08615 0 0 0
305.88544 -468.5759 104.33659 0 0 0
305.57178 -469.08353 104.50844 0 0 0
305.52859 -469.33359 105.11114 0 0 0
305.21423 -469.63312 105.08659 0 0 0
305.87643 -468.24249 104.01483 0 0 0
306.15924 -467.97314 104.30918 0 0 0
306.17499 -468.19006 104.55953 0 0 0
305.9144 -468.76758 104.77114 0 0 0
306.48972 -467.2605 104.56117 0 0 0
306.40021 -467.69412 104.65083 0 0 0
306.34 -468.16049 105.08659 0 0 0
306.11017 -468.63489 105.2366 0 0 0
305.86096 -469.06049 105.57236 0 0 0
306.46042 -466.5105 104.18672 0 0 0
306.60205 -466.28552 104.4866 0 0 0
306.71561 -466.8855 105.1183 0 0 0
306.56561 -467.56049 105.08659 0 0 0
306.49011 -467.98499 105.5366 0 0 0
306.19446 -468.57993 105.83659 0 0 0
306.36121 -465.89279 103.81401 0 0 0
306.51709 -465.74197 104.1866 0 0 0
306.76276 -466.21051 105.05269 0 0 0
306.80505 -466.52194 105.3866 0 0 0
306.75333 -467.15079 105.5366 0 0 0
306.64902 -467.56049 105.5366 0 0 0
306.17896 -465.7605 103.4366 0 0 0
306.39035 -465.46051 103.90364 0 0 0
306.47797 -465.16049 104.22074 0 0 0
306.65094 -465.16049 104.7866 0 0 0
306.77069 -465.6105 105.11726 0 0 0
306.84692 -465.91049 105.5366 0 0 0
306.23389 -465.0105 103.70935 0 0 0
306.15295 -464.58545 103.77141 0 0 0
306.51691 -464.71051 104.6366 0 0 0
306.64221 -464.71051 105.2366 0 0 0
306.77728 -465.24753 105.41611 0 0 0
305.93909 -464.1105 103.71752 0 0 0
306.2142 -464.27374 104.1866 0 0 0
306.41702 -464.26917 104.7866 0 0 0
306.44586 -464.12061 105.3866 0 0 0
306.64264 -464.6355 105.6866 0 0 0
306.82385 -465.46051 105.83659 0 0 0
305.86096 -464.28046 103.4366 0 0 0
305.63824 -463.82001 103.4366 0 0 0
305.6799 -463.51367 103.87372 0 0 0
306.03769 -463.81622 104.26829 0 0 0
306.24316 -463.81049 104.92747 0 0 0
305.28067 -463.60425 103.11171 0 0 0
305.27847 -463.19989 103.56847 0 0 0
305.49841 -463.05386 104.17432 0 0 0
305.86664 -463.35242 104.52277 0 0 0
305.9043 -463.23804 104.9366 0 0 0
306.1973 -463.59827 105.83659 0 0 0
304.83136 -462.75342 103.57266 0 0 0
305.24384 -462.77838 104.15648 0 0 0
305.59689 -462.94482 104.6366 0 0 0
305.56232 -462.78363 105.07572 0 0 0
305.59378 -462.7605 105.5366 0 0 0
305.95673 -463.22787 105.83659 0 0 0
304.27847 -462.34537 103.59345 0 0 0
304.65369 -462.40698 103.90398 0 0 0
305.15161 -462.48926 104.6366 0 0 0
305.26129 -462.48303 105.08398 0 0 0
305.27832 -462.46051 105.7063 0 0 0
305.55359 -462.78461 106.08812 0 0 0
303.74585 -462.08075 103.59575 0 0 0
303.92343 -461.92493 104.0366 0 0 0
304.36673 -462.09076 104.1787 0 0 0
304.67245 -462.15247 104.51837 0 0 0
304.79645 -462.0831 105.2366 0 0 0
302.99194 -462.15247 103.11743 0 0 0
303.28705 -461.89246 103.64967 0 0 0
303.31097 -461.69525 104.0366 0 0 0
303.91098 -461.79727 104.33659 0 0 0
304.33511 -461.87643 104.77681 0 0 0
302.41098 -462.07068 103.10056 0 0 0
302.86096 -461.81372 103.61008 0 0 0
302.67612 -461.56689 104.01201 0 0 0
303.32336 -461.58832 104.31805 0 0 0
303.60712 -461.56787 104.77724 0 0 0
304.41412 -461.83102 105.2366 0 0 0
301.96097 -461.94513 103.26897 0 0 0
302.26099 -461.53723 103.9874 0 0 0
302.71097 -461.44855 104.33659 0 0 0
303.16098 -461.45328 104.6366 0 0 0
303.16098 -461.3877 105.08659 0 0 0
303.46097 -461.44458 105.2366 0 0 0
301.49438 -461.87781 103.43382 0 0 0
301.54639 -461.56686 104.01125 0 0 0
301.81097 -461.42578 104.33659 0 0 0
302.26099 -461.37781 104.4866 0 0 0
302.71097 -461.3082 105.08659 0 0 0
300.99728 -461.86694 103.62604 0 0 0
300.91098 -461.68951 104.0366 0 0 0
301.21097 -461.45996 104.4866 0 0 0
302.11096 -461.24298 105.17972 0 0 0
302.26099 -461.20529 105.5366 0 0 0
302.61755 -461.24066 105.6866 0 0 0
300.30316 -461.9472 103.95491 0 0 0
300.46097 -461.71588 104.33659 0 0 0
300.65912 -461.55957 104.6366 0 0 0
300.91098 -461.40244 105.08659 0 0 0
301.45517 -461.25894 105.34543 0 0 0
301.81097 -461.20853 105.5366 0 0 0
299.57751 -462.39157 103.8866 0 0 0
300.00104 -461.92883 104.32422 0 0 0
300.01575 -461.80414 104.70204 0 0 0
300.32996 -461.51059 105.5366 0 0 0
300.836 -461.35132 105.6866 0 0 0
298.94214 -462.7428 104.21012 0 0 0
299.58444 -462.16049 104.33659 0 0 0
299.73706 -461.82281 105.2366 0 0 0
299.86096 -461.69687 105.83659 0 0 0
300.31393 -461.50659 105.83659 0 0 0
298.67007 -462.7691 104.74907 0 0 0
299.25229 -462.15424 105.11877 0 0 0
299.20276 -462.11621 105.5366 0 0 0
299.41925 -461.96405 105.83659 0 0 0
299.75967 -461.80145 106.2866 0 0 0
300.46097 -461.55972 106.7366 0 0 0
298.38269 -463.08383 104.77152 0 0 0
298.31995 -463.00867 105.2366 0 0 0
298.76999 -462.48825 105.5366 0 0 0
298.90057 -462.40985 106.4366 0 0 0
299.38303 -462.20844 107.0366 0 0 0
299.96478 -461.85065 106.97244 0 0 0
298.06598 -463.34045 105.41325 0 0 0
298.33383 -462.94788 105.5366 0 0 0
298.14893 -463.18408 105.83659 0 0 0
298.60168 -462.69604 106.4366 0 0 0
298.66098 -462.7366 106.79615 0 0 0
298.97913 -462.46841 106.91728 0 0 0
297.75641 -463.85666 105.5366 0 0 0
297.39246 -464.8605 105.5366 0 0 0
297.58774 -464.2605 105.9866 0 0 0
297.71228 -464.12424 106.58659 0 0 0
297.88196 -463.66049 106.2866 0 0 0
298.0918 -463.38962 106.52091 0 0 0
298.29214 -463.34808 107.1866 0 0 0
297.48743 -464.73273 105.12041 0 0 0
297.34155 -465.31049 105.2366 0 0 0
297.32574 -465.31049 105.6866 0 0 0
297.35269 -465.31049 106.2866 0 0 0
297.50983 -464.56049 106.4366 0 0 0
297.34064 -465.7605 105.08659 0 0 0
297.26804 -466.06049 105.83659 0 0 0
297.27695 -465.91049 106.1366 0 0 0
297.34033 -465.7605 106.58659 0 0 0
297.60626 -464.56049 106.8866 0 0 0
297.38129 -466.21051 104.9366 0 0 0
297.36597 -466.5105 105.2366 0 0 0
297.47638 -467.09396 105.3866 0 0 0
297.43073 -467.08221 105.83659 0 0 0
297.37311 -466.66049 106.4366 0 0 0
297.51776 -466.75363 104.77345 0 0 0
297.55792 -467.1105 104.9366 0 0 0
297.7496 -467.8605 105.18249 0 0 0
297.5704 -467.56049 105.9866 0 0 0
297.75436 -467.0881 104.30434 0 0 0
298.00458 -467.7663 104.21678 0 0 0
298.07111 -468.13751 104.45563 0 0 0
297.98132 -468.30493 105.11108 0 0 0
297.7442 -467.97409 105.5366 0 0 0
298.30951 -468.3009 104.05977 0 0 0
298.36267 -468.62711 104.41159 0 0 0
298.46613 -469.03281 105.08659 0 0 0
298.0918 -468.64404 105.5366 0 0 0
297.73193 -467.9823 106.1366 0 0 0
298.64734 -468.77832 103.98611 0 0 0
298.65411 -469.04315 104.44185 0 0 0
298.83316 -469.37759 104.8616 0 0 0
298.6199 -469.3605 105.83659 0 0 0
298.36096 -469.0452 105.6866 0 0 0
299.11758 -468.61066 103.15327 0 0 0
299.24445 -469.36499 103.90244 0 0 0
299.11096 -469.49994 104.38863 0 0 0
299.20569 -469.70618 104.7866 0 0 0
298.93073 -469.66049 105.83659 0 0 0
299.67059 -469.64331 103.78757 0 0 0
299.56097 -469.84198 104.33659 0 0 0
299.56097 -469.95309 104.66631 0 0 0
299.43021 -470.02118 106.1366 0 0 0
298.95749 -469.64435 106.31179 0 0 0
298.64557 -469.3576 106.27147 0 0 0
300.17865 -469.95172 103.77155 0 0 0
300.29242 -470.19434 104.20302 0 0 0
299.99713 -470.19513 104.61204 0 0 0
300.16098 -470.37173 105.08659 0 0 0
300.91141 -470.21869 103.7366 0 0 0
300.72229 -470.34857 104.17149 0 0 0
300.62256 -470.49747 104.77077 0 0 0
300.64075 -470.58652 105.3116 0 0 0
300.00537 -470.33643 105.69555 0 0 0
301.19525 -470.45236 104.1116 0 0 0
301.06097 -470.5719 104.52057 0 0 0
301.06097 -470.67142 104.9366 0 0 0
300.91098 -470.69391 105.83659 0 0 0
300.46097 -470.54095 105.6866 0 0 0
301.96097 -470.58597 104.21317 0 0 0
301.51099 -470.68457 104.6366 0 0 0
301.51099 -470.79706 105.3866 0 0 0
301.51099 -470.80609 105.83659 0 0 0
301.21097 -470.72449 106.2866 0 0 0
300.31097 -470.41669 106.7366 0 0 0
302.41098 -470.57526 104.22318 0 0 0
302.41098 -470.74472 104.7866 0 0 0
301.96097 -470.75513 104.7866 0 0 0
302.11096 -470.83691 105.2366 0 0 0
301.96097 -470.84946 105.6866 0 0 0
303.01099 -470.42578 104.0366 0 0 0
302.86096 -470.61377 104.4866 0 0 0
303.01099 -470.7027 104.9366 0 0 0
302.71097 -470.79974 105.2366 0 0 0
303.62881 -470.25269 104.04535 0 0 0
303.31097 -470.48407 104.39568 0 0 0
303.76099 -470.4502 104.7866 0 0 0
303.5271 -470.63367 105.3866 0 0 0
303.16098 -470.7359 105.3866 0 0 0
303.94949 -470.26343 104.39989 0 0 0
304.06097 -470.38409 105.08659 0 0 0
303.91098 -470.49603 105.53293 0 0 0
303.91098 -470.4931 106.0291 0 0 0
303.31097 -470.70856 105.83659 0 0 0
304.51932 -470.0524 104.71991 0 0 0
304.78375 -470.004 105.2366 0 0 0
304.51099 -470.20148 105.6116 0 0 0
304.51099 -470.18176 106.15645 0 0 0
304.19052 -470.30515 106.4366 0 0 0
303.59378 -470.60193 106.1366 0 0 0
305.26099 -469.66553 105.47542 0 0 0
304.9259 -469.93542 105.6866 0 0 0
304.91364 -469.92706 106.1366 0 0 0
304.77045 -469.97565 106.4366 0 0 0
305.56097 -469.39856 105.6866 0 0 0
305.25824 -469.66534 105.96018 0 0 0
305.22064 -469.62665 106.4366 0 0 0
304.65405 -469.71707 107.47639 0 0 0
304.22086 -469.90338 107.65918 0 0 0
305.85223 -469.06256 106.01836 0 0 0
305.54715 -469.34982 106.30556 0 0 0
305.21155 -469.31525 107.33659 0 0 0
304.85651 -469.39578 107.80885 0 0 0
304.63647 -469.32239 108.21086 0 0 0
306.18277 -468.57272 106.1366 0 0 0
305.9162 -468.88583 106.4366 0 0 0
305.56097 -468.76453 107.64301 0 0 0
304.95386 -469.13782 108.06883 0 0 0
306.48804 -467.98254 106.1366 0 0 0
306.4223 -468.03107 106.4366 0 0 0
306.1662 -468.4686 106.55136 0 0 0
305.84241 -468.3504 107.6366 0 0 0
305.5788 -468.32953 108.11575 0 0 0
305.31854 -468.73657 108.07385 0 0 0
306.70807 -467.41049 105.83659 0 0 0
306.64182 -467.41049 106.4366 0 0 0
306.46793 -467.68652 106.75644 0 0 0
306.14624 -468.16376 107.11694 0 0 0
306.30676 -467.41049 107.4866 0 0 0
305.86151 -468.04938 107.90338 0 0 0
306.81802 -466.81049 105.83659 0 0 0
306.75626 -466.84433 106.42296 0 0 0
306.57794 -467.1105 106.9136 0 0 0
306.8602 -466.3605 105.83659 0 0 0
306.83984 -466.3605 106.1366 0 0 0
306.66034 -466.66049 106.8866 0 0 0
306.44476 -466.81049 107.47287 0 0 0
306.17542 -466.96051 108.04726 0 0 0
306.11029 -467.41049 107.9366 0 0 0
306.83344 -465.91049 106.1366 0 0 0
306.66937 -465.67328 106.81668 0 0 0
306.63809 -466.21051 107.0366 0 0 0
306.49609 -466.3605 107.4866 0 0 0
306.30725 -466.5105 107.9366 0 0 0
306.76706 -465.32617 106.17062 0 0 0
306.50421 -465.17526 107.1866 0 0 0
306.4657 -465.46051 107.44109 0 0 0
306.32809 -466.06049 107.9366 0 0 0
305.79587 -465.91049 108.75163 0 0 0
305.72327 -466.5105 108.83659 0 0 0
306.63727 -464.71051 106.1366 0 0 0
306.33368 -464.71051 107.33659 0 0 0
306.16556 -465.04663 107.94426 0 0 0
306.28366 -465.6105 107.9366 0 0 0
305.68512 -465.46051 108.83659 0 0 0
305.46036 -466.3605 109.1339 0 0 0
306.43762 -464.07687 105.83659 0 0 0
306.22192 -464.11609 107.02669 0 0 0
306.0882 -464.54895 107.7866 0 0 0
305.83588 -464.73486 108.31903 0 0 0
306.17908 -463.63123 106.1366 0 0 0
305.90234 -463.53894 107.0366 0 0 0
305.94867 -463.81049 107.3446 0 0 0
305.62585 -464.13416 108.2366 0 0 0
305.55463 -464.43146 108.54321 0 0 0
305.56937 -465.04175 108.84621 0 0 0
305.5097 -462.87872 106.7366 0 0 0
305.56097 -463.06049 107.05622 0 0 0
305.57959 -463.33661 107.46078 0 0 0
305.63632 -463.66946 107.77715 0 0 0
305.28079 -463.63293 108.28813 0 0 0
305.06262 -463.84869 108.72246 0 0 0
305.0715 -462.43765 106.7366 0 0 0
305.27423 -462.74744 107.09206 0 0 0
305.08377 -462.78845 107.48926 0 0 0
305.19061 -463.34296 108.09801 0 0 0
304.96097 -462.19489 105.6866 0 0 0
304.51392 -461.96649 106.37668 0 0 0
304.68661 -462.16049 106.79344 0 0 0
304.66296 -462.44653 107.51334 0 0 0
304.68018 -462.83282 108.09763 0 0 0
304.41046 -461.83243 105.6866 0 0 0
303.91437 -461.63885 106.38017 0 0 0
304.17657 -461.83551 106.7366 0 0 0
304.05441 -461.92255 107.1866 0 0 0
304.22516 -462.19672 107.57742 0 0 0
304.36359 -462.59332 108.09887 0 0 0
303.86652 -461.57889 105.6866 0 0 0
303.46097 -461.45383 106.2866 0 0 0
303.2919 -461.51239 106.82343 0 0 0
303.76099 -461.68329 106.8866 0 0 0
303.46097 -461.72147 107.33659 0 0 0
303.91098 -462.22818 107.95417 0 0 0
303.46097 -461.43021 105.6866 0 0 0
302.58102 -461.25702 106.20367 0 0 0
302.71097 -461.44739 107.0366 0 0 0
301.96097 -461.19928 105.9866 0 0 0
302.11096 -461.30048 106.7366 0 0 0
302.11096 -461.53918 107.4549 0 0 0
302.69934 -461.59601 107.45393 0 0 0
303.16098 -461.82227 107.76286 0 0 0
303.29486 -462.1391 108.25758 0 0 0
300.91098 -461.33499 106.1366 0 0 0
301.54742 -461.26199 106.46024 0 0 0
301.66098 -461.35056 106.8866 0 0 0
300.75369 -461.60703 107.19269 0 0 0
301.28595 -461.40247 106.8866 0 0 0
301.66098 -461.53391 107.45886 0 0 0
302.11096 -461.74283 107.9366 0 0 0
302.56097 -461.9082 108.16492 0 0 0
300.31708 -461.77966 107.25365 0 0 0
300.61096 -461.81451 107.61838 0 0 0
301.22388 -461.59491 107.45779 0 0 0
301.51099 -461.75613 107.9366 0 0 0
301.81097 -462.13489 108.57395 0 0 0
302.26099 -462.13602 108.57208 0 0 0
299.7951 -462.12903 107.47696 0 0 0
300.1492 -462.0817 107.7866 0 0 0
300.48541 -462.17029 108.20403 0 0 0
300.836 -462.18274 108.40021 0 0 0
301.01794 -461.84851 107.9366 0 0 0
299.27896 -462.46881 107.50257 0 0 0
299.7178 -462.35034 107.85423 0 0 0
300.0271 -462.3967 108.22287 0 0 0
300.40015 -462.44611 108.55457 0 0 0
300.89948 -462.48047 108.81168 0 0 0
301.36096 -462.41891 108.88535 0 0 0
298.67719 -463.07672 107.5798 0 0 0
299.19592 -463.06049 108.30655 0 0 0
299.82672 -463.03802 108.83659 0 0 0
300.32684 -462.74731 108.83816 0 0 0
300.89899 -462.78091 109.11268 0 0 0
301.36096 -462.70996 109.18137 0 0 0
298.46851 -463.3605 107.6366 0 0 0
298.9364 -463.32959 108.29606 0 0 0
299.53424 -463.30746 108.85777 0 0 0
299.86096 -463.3605 109.1251 0 0 0
300.31097 -463.3605 109.35785 0 0 0
298.06097 -463.63593 107.07217 0 0 0
298.32196 -463.82666 107.90201 0 0 0
298.35425 -464.14999 108.24542 0 0 0
298.81531 -463.96045 108.6866 0 0 0
299.26099 -463.98331 109.1221 0 0 0
297.79694 -464.24994 107.2029 0 0 0
298.01489 -464.28455 107.77613 0 0 0
298.09436 -464.56049 108.1209 0 0 0
298.45844 -465.0105 108.8145 0 0 0
298.60184 -464.32407 108.66969 0 0 0
297.80026 -464.5502 107.50373 0 0 0
297.75754 -465.31049 107.79023 0 0 0
298.11768 -465.16049 108.40974 0 0 0
297.62274 -465.0105 107.33659 0 0 0
297.50211 -465.44839 107.1866 0 0 0
297.69727 -465.7605 107.77882 0 0 0
297.94043 -465.6105 108.2366 0 0 0
297.50864 -465.91049 107.27022 0 0 0
297.56329 -466.5105 107.33659 0 0 0
297.73053 -466.5105 107.75935 0 0 0
297.93518 -466.21051 108.2366 0 0 0
298.09552 -466.21051 108.48816 0 0 0
298.36096 -465.46051 108.82279 0 0 0
297.62799 -466.96051 107.33659 0 0 0
297.82037 -466.97705 107.79576 0 0 0
298.04468 -466.66049 108.34756 0 0 0
298.43854 -466.81049 108.81917 0 0 0
298.65652 -466.54553 109.12228 0 0 0
298.62589 -465.91049 109.1366 0 0 0
297.62897 -467.56049 106.58659 0 0 0
297.77594 -467.72235 106.99521 0 0 0
297.74475 -467.3768 107.33659 0 0 0
298.18369 -467.8605 107.9366 0 0 0
298.07516 -467.12866 108.20331 0 0 0
298.63867 -467.3894 108.86096 0 0 0
297.75354 -467.96686 106.4366 0 0 0
297.98145 -468.30994 106.7366 0 0 0
298.18344 -468.16049 107.6366 0 0 0
298.67422 -468.44125 108.19821 0 0 0
298.35132 -467.63397 108.35651 0 0 0
298.02393 -468.52112 106.2866 0 0 0
298.3338 -468.8746 106.7366 0 0 0
298.40112 -468.7605 107.20524 0 0 0
298.6188 -468.68344 107.80533 0 0 0
298.27704 -468.89606 106.2866 0 0 0
298.70419 -469.31573 106.7366 0 0 0
298.93655 -469.38812 107.17931 0 0 0
298.9407 -469.08301 107.76189 0 0 0
299.09821 -468.91049 108.2366 0 0 0
299.1297 -469.68002 106.8116 0 0 0
299.27521 -469.63837 107.30925 0 0 0
299.24161 -469.37854 107.75838 0 0 0
299.57034 -469.45251 108.07703 0 0 0
299.54712 -469.07184 108.56251 0 0 0
299.24524 -468.77789 108.56977 0 0 0
299.90729 -470.23453 106.7366 0 0 0
299.68634 -469.9104 107.33659 0 0 0
299.66766 -469.68829 107.8112 0 0 0
300.03265 -469.65002 108.24292 0 0 0
300.01099 -469.16034 108.83659 0 0 0
299.53928 -468.78143 108.83659 0 0 0
299.84204 -470.2605 106.2866 0 0 0
300.46097 -470.40622 107.0366 0 0 0
300.06012 -469.95456 107.71384 0 0 0
300.46097 -469.97449 108.04612 0 0 0
300.44626 -469.66049 108.5366 0 0 0
301.08902 -470.31439 107.77884 0 0 0
300.88525 -470.01605 108.2366 0 0 0
300.76099 -469.62952 108.72546 0 0 0
300.42889 -469.39221 108.85237 0 0 0
300.91098 -470.44727 107.33659 0 0 0
301.44818 -470.49756 107.5022 0 0 0
301.36096 -470.20923 108.10745 0 0 0
301.54688 -469.95267 108.55565 0 0 0
301.36096 -469.40472 109.17973 0 0 0
300.88281 -469.33411 109.11111 0 0 0
300.90475 -470.56171 106.88507 0 0 0
301.51099 -470.71387 106.7366 0 0 0
301.96097 -470.60522 107.33659 0 0 0
302.41098 -470.34753 107.9366 0 0 0
302.11096 -469.98492 108.57317 0 0 0
301.81097 -469.42932 109.20383 0 0 0
301.96097 -470.71918 106.8866 0 0 0
302.41098 -470.58078 107.34789 0 0 0
302.87964 -470.33865 107.79695 0 0 0
302.71097 -470.16232 108.19534 0 0 0
302.56097 -469.69867 108.88275 0 0 0
302.41098 -469.42331 109.1989 0 0 0
302.56097 -470.7915 106.2866 0 0 0
302.99338 -470.61993 106.8866 0 0 0
303.31097 -470.41809 107.33659 0 0 0
303.30194 -470.23529 107.77054 0 0 0
303.16098 -469.97363 108.3457 0 0 0
303.75751 -470.19925 107.48155 0 0 0
303.92096 -469.91177 107.95216 0 0 0
304.06097 -469.66049 108.25814 0 0 0
303.59668 -469.66718 108.55511 0 0 0
303.03082 -469.64465 108.82397 0 0 0
302.97751 -469.36121 109.14908 0 0 0
304.23019 -469.35791 108.52096 0 0 0
303.61096 -469.39532 108.8719 0 0 0
303.73386 -469.06049 109.1366 0 0 0
303.03217 -468.91049 109.52553 0 0 0
302.56097 -469.10593 109.47135 0 0 0
301.66098 -469.11206 109.47751 0 0 0
304.94052 -468.7605 108.5366 0 0 0
304.24274 -468.67926 109.15952 0 0 0
305.27826 -468.43304 108.43707 0 0 0
304.98431 -468.3006 108.867 0 0 0
304.36096 -468.18063 109.4366 0 0 0
303.90765 -468.46051 109.50723 0 0 0
303.28717 -468.4816 109.74929 0 0 0
305.29111 -468.03015 108.73515 0 0 0
304.97998 -467.89066 109.1366 0 0 0
304.74542 -467.68939 109.41057 0 0 0
304.35172 -467.69577 109.66414 0 0 0
303.43787 -468.00092 109.94836 0 0 0
302.86096 -468.58667 109.78577 0 0 0
305.62433 -467.71051 108.5366 0 0 0
305.50415 -467.56049 108.77127 0 0 0
305.20868 -467.56049 109.08582 0 0 0
305.28885 -467.11847 109.16026 0 0 0
304.95233 -467.13599 109.44887 0 0 0
304.46854 -467.2605 109.74722 0 0 0
305.90601 -467.2605 108.3595 0 0 0
305.58112 -467.1105 108.86175 0 0 0
305.03415 -466.66049 109.49452 0 0 0
304.64685 -466.83539 109.73053 0 0 0
304.17059 -466.3605 110.05061 0 0 0
303.81329 -467.1105 110.10315 0 0 0
303.89926 -467.53021 109.94925 0 0 0
305.04999 -465.91049 109.50565 0 0 0
304.69635 -466.21051 109.75833 0 0 0
304.23889 -465.68549 109.99705 0 0 0
303.76099 -465.83551 110.21558 0 0 0
303.76099 -466.5105 110.21605 0 0 0
305.02359 -465.46051 109.48418 0 0 0
304.48541 -465.16049 109.78363 0 0 0
304.0318 -465.27356 110.04201 0 0 0
303.20435 -465.33087 110.33598 0 0 0
303.29132 -465.83551 110.36469 0 0 0
303.297 -466.28552 110.3712 0 0 0
305.2695 -465.03217 109.15301 0 0 0
304.94928 -464.91306 109.38834 0 0 0
304.36691 -464.75311 109.73978 0 0 0
304.06097 -464.71051 109.89253 0 0 0
303.61938 -464.81189 110.09756 0 0 0
305.02936 -464.42877 109.1366 0 0 0
304.69324 -463.9415 109.14898 0 0 0
303.91098 -464.26465 109.80277 0 0 0
303.17615 -464.10004 109.97858 0 0 0
303.16098 -464.71051 110.2071 0 0 0
304.68869 -463.5376 108.85963 0 0 0
304.36096 -463.27713 108.91006 0 0 0
304.05249 -463.82678 109.49986 0 0 0
303.76099 -463.54071 109.4741 0 0 0
303.26556 -463.65811 109.73797 0 0 0
304.93478 -463.42004 108.5065 0 0 0
304.63074 -463.11359 108.50618 0 0 0
304.22919 -462.86981 108.58382 0 0 0
303.59155 -462.6991 108.83659 0 0 0
303.58539 -463.06049 109.19432 0 0 0
303.04608 -462.46454 108.81982 0 0 0
303.01263 -463.08572 109.41595 0 0 0
302.41098 -462.40363 108.90138 0 0 0
302.56097 -463.02295 109.46591 0 0 0
302.71097 -463.66049 109.86759 0 0 0
301.81097 -462.39691 108.90665 0 0 0
302.11096 -463.00482 109.47928 0 0 0
302.26099 -463.3605 109.73396 0 0 0
302.11096 -463.72076 109.94301 0 0 0
302.41098 -464.2605 110.17531 0 0 0
302.69342 -464.70551 110.29485 0 0 0
301.66098 -463.0105 109.4749 0 0 0
301.81097 -463.3605 109.72386 0 0 0
301.5437 -463.87421 109.99596 0 0 0
301.51099 -464.2605 110.17115 0 0 0
301.96097 -464.2605 110.19683 0 0 0
301.96097 -464.72888 110.36473 0 0 0
301.24744 -463.03546 109.4262 0 0 0
301.21097 -463.5437 109.76428 0 0 0
301.06097 -464.15289 110.04808 0 0 0
300.91098 -464.56049 110.17446 0 0 0
301.36096 -465.16049 110.42152 0 0 0
300.76099 -463.25128 109.45457 0 0 0
300.76099 -463.81049 109.80847 0 0 0
300.61096 -464.2605 109.97801 0 0 0
300.31097 -464.54431 109.98009 0 0 0
300.60495 -465.44965 110.29881 0 0 0
300.04401 -464.2605 109.76028 0 0 0
299.85205 -464.68054 109.80903 0 0 0
300.16098 -465.46051 110.14966 0 0 0
300.16098 -466.3605 110.1775 0 0 0
300.91098 -466.06049 110.4156 0 0 0
299.53387 -464.22314 109.4366 0 0 0
298.95532 -464.69739 109.19675 0 0 0
299.52386 -465.16049 109.75926 0 0 0
299.32361 -465.6105 109.69211 0 0 0
299.71097 -466.3605 109.95015 0 0 0
298.65033 -465.40564 109.1366 0 0 0
298.93387 -466.06049 109.4366 0 0 0
299.30356 -466.21051 109.70736 0 0 0
299.37329 -466.66049 109.70886 0 0 0
300.03 -466.66049 110.08099 0 0 0
298.96027 -466.51642 109.41554 0 0 0
298.96097 -467.52832 109.12454 0 0 0
299.4389 -467.56049 109.48041 0 0 0
299.72134 -467.11823 109.80247 0 0 0
300.46097 -467.1105 110.15497 0 0 0
300.59619 -466.51093 110.30566 0 0 0
298.93665 -467.99915 108.854 0 0 0
299.24628 -467.99335 109.13794 0 0 0
299.71097 -468.45105 109.22055 0 0 0
300.00839 -467.63922 109.79131 0 0 0
300.61096 -467.54132 110.08087 0 0 0
301.33417 -467.1105 110.3753 0 0 0
298.67316 -468.04767 108.52145 0 0 0
299.8916 -468.73663 109.1366 0 0 0
300.31097 -468.75479 109.3577 0 0 0
300.13684 -468.50354 109.44988 0 0 0
300.60724 -468.46051 109.68255 0 0 0
300.77698 -467.99725 109.96196 0 0 0
301.51099 -467.8605 110.17355 0 0 0
301.24643 -469.04718 109.45563 0 0 0
301.06097 -468.46051 109.816 0 0 0
301.96097 -468.33615 109.9974 0 0 0
302.26099 -467.53903 110.33659 0 0 0
301.51099 -466.66049 110.47346 0 0 0
301.06097 -466.5105 110.42429 0 0 0
301.81097 -468.75775 109.74457 0 0 0
302.336 -468.33594 109.99254 0 0 0
302.71097 -467.8605 110.17337 0 0 0
302.56097 -467.38287 110.35453 0 0 0
302.26099 -467.1105 110.43661 0 0 0
301.36096 -466.21051 110.4959 0 0 0
302.26099 -466.06049 110.53949 0 0 0
302.26099 -465.16049 110.46051 0 0 0
302.71097 -465.16049 110.40968 0 0 0
302.26099 -466.5105 110.51749 0 0 0
302.71097 -466.8855 110.43619 0 0 0
302.86096 -465.6105 110.4496 0 0 0
303.46097 -467.41049 110.16008 0 0 0
303.29684 -466.8111 110.32469 0 0 0
302.37814 -468.75464 109.74342 0 0 0
0 0 0 1 0 0 0 1 0 0 0 1 0 0 0 0 0 770 1 0 0
