ply
format ascii 1.0
comment PCL generated
element vertex 1050
property float x
property float y
property float z
property uchar red
property uchar green
property uchar blue
element camera 1
property float view_px
property float view_py
property float view_pz
property float x_axisx
property float x_axisy
property float x_axisz
property float y_axisx
property float y_axisy
property float y_axisz
property float z_axisx
property float z_axisy
property float z_axisz
property float focal
property float scalex
property float scaley
property float centerx
property float centery
property int viewportx
property int viewporty
property float k1
property float k2
end_header
17.661104 103.49166 40.89399 0 0 0
17.362452 103.49166 40.689095 0 0 0
17.362452 103.3377 40.59399 0 0 0
17.394274 103.19166 40.562595 0 0 0
18.677425 103.79166 41.483871 0 0 0
18.262451 103.79166 41.362034 0 0 0
17.930027 103.79166 41.211197 0 0 0
17.662453 103.79166 41.071194 0 0 0
17.362452 103.76316 40.927238 0 0 0
18.712452 104.01527 41.560562 0 0 0
18.103596 104.10999 41.476986 0 0 0
17.662453 104.01242 41.271408 0 0 0
17.362452 104.04724 41.23558 0 0 0
17.062452 103.79166 40.934231 0 0 0
19.312452 104.09166 41.676029 0 0 0
19.034372 104.39603 41.802483 0 0 0
18.487453 104.24166 41.645714 0 0 0
17.737453 104.32297 41.55172 0 0 0
20.062452 103.79166 41.579865 0 0 0
20.212452 104.09166 41.65715 0 0 0
19.687454 104.22646 41.753174 0 0 0
19.312452 104.69166 41.930771 0 0 0
18.637451 104.69166 41.883301 0 0 0
18.412453 104.53867 41.793987 0 0 0
20.32419 103.79166 41.493988 0 0 0
20.662453 103.86714 41.441757 0 0 0
20.887451 104.06458 41.541786 0 0 0
20.812452 104.39166 41.673332 0 0 0
20.255432 104.41145 41.797169 0 0 0
20.646841 103.51508 41.187241 0 0 0
20.962452 103.70855 41.273552 0 0 0
21.262453 103.71056 41.270653 0 0 0
21.274654 104.06847 41.49791 0 0 0
21.262453 104.39166 41.560932 0 0 0
20.962452 103.49166 41.070717 0 0 0
20.962452 103.21549 40.89399 0 0 0
21.262453 103.42197 40.961609 0 0 0
21.262453 103.19166 40.763325 0 0 0
21.562452 103.00293 40.562454 0 0 0
21.562452 103.4426 40.937416 0 0 0
21.222887 102.91019 40.580326 0 0 0
21.288326 102.57983 40.300346 0 0 0
21.562452 102.29166 40.020256 0 0 0
16.762451 101.86504 39.09399 0 0 0
16.762451 102.59166 39.88385 0 0 0
16.462452 102.53514 39.74762 0 0 0
16.415993 102.26904 39.446144 0 0 0
16.436527 101.99166 39.110481 0 0 0
17.196104 102.89165 40.293987 0 0 0
17.062452 102.89165 40.194637 0 0 0
16.762451 102.81783 40.048626 0 0 0
16.462452 102.84581 40.034729 0 0 0
17.062452 103.12839 40.335159 0 0 0
16.762451 103.32599 40.470493 0 0 0
16.370579 103.17807 40.305393 0 0 0
16.162453 102.74695 39.843987 0 0 0
17.062452 103.49166 40.617657 0 0 0
16.708136 103.79166 40.89399 0 0 0
16.462452 103.85184 40.854958 0 0 0
16.462452 103.49467 40.59399 0 0 0
20.662453 101.13351 38.193989 0 0 0
16.986034 101.66451 38.793987 0 0 0
16.762451 101.71207 38.731461 0 0 0
16.462452 101.77948 38.793987 0 0 0
16.162453 101.79043 38.493988 0 0 0
16.162453 101.75684 38.193989 0 0 0
16.117363 101.97377 38.824997 0 0 0
15.891106 102.01913 38.493988 0 0 0
15.850548 101.99166 38.25103 0 0 0
15.838413 101.97369 37.89399 0 0 0
15.862452 101.9991 37.621853 0 0 0
16.162453 102.21835 39.226936 0 0 0
15.884428 102.45219 39.230507 0 0 0
15.815778 102.23924 38.793987 0 0 0
15.577946 102.31606 38.360352 0 0 0
15.524746 102.24904 37.89399 0 0 0
15.515656 102.24514 37.59399 0 0 0
15.835136 102.87526 39.710663 0 0 0
15.572894 102.9061 39.355568 0 0 0
15.521414 102.75461 39.027809 0 0 0
15.351093 102.61291 38.343987 0 0 0
15.2488 102.5754 37.758705 0 0 0
15.862452 103.19166 40.027885 0 0 0
15.493443 103.19994 39.529663 0 0 0
15.262452 103.19624 39.09399 0 0 0
15.18853 103.04999 38.652126 0 0 0
15.106653 102.89165 38.043991 0 0 0
16.162453 103.21561 40.27523 0 0 0
15.893453 103.51677 40.280151 0 0 0
15.565357 103.6174 39.947166 0 0 0
15.192944 103.492 39.243713 0 0 0
14.969907 103.50987 38.678963 0 0 0
14.957821 103.18125 38.01442 0 0 0
16.162453 103.49166 40.475315 0 0 0
15.816971 103.79166 40.34269 0 0 0
15.507586 104.16666 40.110592 0 0 0
15.225173 103.79166 39.517994 0 0 0
14.944971 103.79166 38.911453 0 0 0
16.143988 103.7385 40.608284 0 0 0
15.901831 104.09166 40.5541 0 0 0
15.845359 104.53233 40.608925 0 0 0
15.552004 104.58339 40.283142 0 0 0
15.21163 104.69166 39.822693 0 0 0
15.234907 104.22029 39.730415 0 0 0
16.385792 104.09166 40.941814 0 0 0
16.162453 104.09166 40.789864 0 0 0
16.162453 104.43158 40.886345 0 0 0
16.127176 104.84166 40.907852 0 0 0
15.824354 105.14166 40.632423 0 0 0
15.537482 105.14166 40.306416 0 0 0
16.762451 104.14435 41.163551 0 0 0
16.536701 104.39166 41.148834 0 0 0
17.012714 104.09166 41.206226 0 0 0
16.762451 104.39166 41.275272 0 0 0
16.762451 104.84166 41.354343 0 0 0
16.477734 104.84166 41.173058 0 0 0
16.612452 105.29166 41.271179 0 0 0
16.135456 105.29166 40.916752 0 0 0
17.062452 104.39166 41.397507 0 0 0
17.061909 104.69046 41.493988 0 0 0
17.02758 104.99166 41.512192 0 0 0
17.025635 105.29166 41.512699 0 0 0
17.352394 104.38564 41.493988 0 0 0
17.362452 104.69166 41.619152 0 0 0
17.362452 104.99166 41.663841 0 0 0
17.362452 105.44166 41.639347 0 0 0
17.221588 105.82367 41.533134 0 0 0
16.762451 105.59166 41.334797 0 0 0
17.823788 104.70717 41.750984 0 0 0
17.920887 104.99166 41.820526 0 0 0
17.847979 105.29166 41.805557 0 0 0
17.8102 105.72205 41.746582 0 0 0
18.562452 104.99166 41.947388 0 0 0
18.412453 105.29166 41.934235 0 0 0
18.262451 105.59166 41.893211 0 0 0
18.416222 106.11665 41.837822 0 0 0
17.812452 106.19166 41.663658 0 0 0
19.012451 104.99166 41.983322 0 0 0
19.012451 105.29166 41.998917 0 0 0
18.712452 105.74166 41.941422 0 0 0
19.087452 106.04166 41.936146 0 0 0
18.680759 106.48248 41.78817 0 0 0
18.112452 106.49166 41.672867 0 0 0
19.612453 104.99166 41.987709 0 0 0
19.612453 105.29166 42.005852 0 0 0
19.312452 105.59166 42.003475 0 0 0
19.687454 105.74166 41.97612 0 0 0
19.612453 106.19166 41.900845 0 0 0
19.312452 106.62629 41.775833 0 0 0
19.912453 104.69166 41.911911 0 0 0
20.212452 104.99166 41.925415 0 0 0
20.212452 105.29166 41.929718 0 0 0
20.502518 104.71022 41.826469 0 0 0
20.692957 104.99166 41.804039 0 0 0
20.812452 105.29166 41.752525 0 0 0
20.503735 105.55099 41.827847 0 0 0
20.062452 105.74166 41.924088 0 0 0
21.112453 104.69166 41.630978 0 0 0
21.112453 104.99166 41.644608 0 0 0
21.444931 105.44166 41.468273 0 0 0
20.962452 105.74166 41.642418 0 0 0
20.561073 106.06148 41.722797 0 0 0
20.273117 106.36972 41.733154 0 0 0
21.499166 104.39166 41.467773 0 0 0
21.51441 104.84166 41.472389 0 0 0
22.007305 105.14166 41.179016 0 0 0
21.868744 105.70831 41.197994 0 0 0
21.412453 105.8799 41.415176 0 0 0
21.144836 106.19166 41.469704 0 0 0
21.562452 104.09166 41.400551 0 0 0
21.923775 104.39166 41.233009 0 0 0
21.97649 104.69166 41.215607 0 0 0
22.394268 104.54166 40.898788 0 0 0
22.429264 105.14166 40.882156 0 0 0
22.358631 105.59166 40.883286 0 0 0
21.598106 103.74312 41.211502 0 0 0
21.862452 104.04422 41.20842 0 0 0
22.342987 104.09166 40.856503 0 0 0
21.862452 103.79166 41.092022 0 0 0
22.160034 103.64166 40.840042 0 0 0
22.492954 103.63994 40.617622 0 0 0
22.725307 104.09166 40.560478 0 0 0
22.760258 104.54166 40.604549 0 0 0
22.762453 105.14415 40.605293 0 0 0
21.862452 103.34166 40.807449 0 0 0
22.162453 103.13855 40.62421 0 0 0
22.367985 103.19166 40.528542 0 0 0
22.794909 103.64166 40.336651 0 0 0
23.006996 104.24166 40.293987 0 0 0
23.049913 104.84166 40.293987 0 0 0
21.862452 102.95377 40.542133 0 0 0
22.162453 102.89165 40.448673 0 0 0
22.447914 102.74807 40.138298 0 0 0
22.727772 103.19166 40.180244 0 0 0
23.064667 103.61964 39.989086 0 0 0
23.128048 104.09166 40.088726 0 0 0
21.562452 102.646 40.251518 0 0 0
21.862452 102.63338 40.256706 0 0 0
22.162453 102.49118 40.1007 0 0 0
22.462452 102.27991 39.706169 0 0 0
22.832462 102.74165 39.693989 0 0 0
22.725006 102.91914 39.97348 0 0 0
21.824268 102.29584 39.993988 0 0 0
21.921543 101.99166 39.711159 0 0 0
22.162453 102.01797 39.660389 0 0 0
22.432476 102.01274 39.39399 0 0 0
22.759029 102.29563 39.291225 0 0 0
21.800198 101.70201 39.377071 0 0 0
22.162453 101.7632 39.253922 0 0 0
22.518671 101.96574 39.148193 0 0 0
21.862452 101.5583 39.09399 0 0 0
22.162453 101.53511 38.793987 0 0 0
22.441872 101.69939 38.67363 0 0 0
22.764946 101.98825 38.604946 0 0 0
21.262453 101.26984 38.793987 0 0 0
21.562452 101.37048 38.856888 0 0 0
20.981853 101.16164 38.579704 0 0 0
22.516048 101.64661 38.043991 0 0 0
20.902452 101.19598 37.443989 0 0 0
22.579868 101.65002 37.59399 0 0 0
22.815437 101.93233 38.043991 0 0 0
20.728649 101.28292 36.687431 0 0 0
21.262453 101.23264 36.76899 0 0 0
21.262453 101.31067 35.943989 0 0 0
23.070389 103.17537 39.719913 0 0 0
23.269257 103.70894 39.697639 0 0 0
23.371996 104.39166 39.802742 0 0 0
23.002003 102.73212 39.413712 0 0 0
23.244251 103.19166 39.39399 0 0 0
23.442514 103.64166 39.264572 0 0 0
23.597811 104.22714 39.240147 0 0 0
23.391233 104.69166 39.812786 0 0 0
23.085751 102.56155 38.943989 0 0 0
23.286484 102.9007 38.911842 0 0 0
23.409378 103.19166 38.943989 0 0 0
23.616983 103.63315 38.801662 0 0 0
23.770622 104.24166 38.793987 0 0 0
23.647232 104.69166 39.280529 0 0 0
22.997719 102.29166 38.64399 0 0 0
23.315144 102.71135 38.418987 0 0 0
23.615641 103.32452 38.359142 0 0 0
23.780869 103.79166 38.343987 0 0 0
23.857174 104.24166 38.493988 0 0 0
23.835667 104.84166 38.793987 0 0 0
23.078491 102.26122 38.084896 0 0 0
23.410929 102.74814 37.96899 0 0 0
23.674036 103.19728 37.743988 0 0 0
23.821838 103.64166 37.89399 0 0 0
23.962452 104.07509 37.646935 0 0 0
23.915522 104.69166 38.493988 0 0 0
23.015266 102.10902 37.59399 0 0 0
23.447235 102.74165 37.59399 0 0 0
23.431313 102.74165 37.218987 0 0 0
23.718586 103.35213 37.13763 0 0 0
23.851475 103.64166 37.59399 0 0 0
22.835299 101.90926 37.293987 0 0 0
23.096798 102.2458 37.14399 0 0 0
22.541382 101.623 37.293987 0 0 0
22.762453 101.98875 36.383305 0 0 0
23.051392 102.30208 36.521568 0 0 0
23.359888 102.70937 36.76899 0 0 0
23.591221 103.22115 36.543991 0 0 0
22.519955 101.6631 36.918987 0 0 0
22.446774 101.69166 36.441727 0 0 0
22.467777 101.89149 35.934563 0 0 0
22.711475 102.04319 36.09399 0 0 0
22.162453 101.50259 36.39399 0 0 0
22.025263 101.59395 35.875908 0 0 0
22.162453 101.92926 35.356705 0 0 0
22.423157 102.17361 35.351715 0 0 0
22.69281 102.28358 35.630928 0 0 0
21.876221 101.39008 36.259735 0 0 0
21.562452 101.34717 35.924965 0 0 0
21.562452 101.4624 35.493988 0 0 0
21.835644 101.70912 35.311871 0 0 0
21.715195 101.99166 34.746376 0 0 0
22.041464 102.26346 34.7206 0 0 0
21.51894 101.66193 35.064041 0 0 0
21.262453 101.68463 34.788883 0 0 0
21.262453 101.99016 34.293987 0 0 0
21.590153 102.2688 34.245415 0 0 0
20.981876 101.76025 34.437149 0 0 0
20.711235 101.9776 33.993988 0 0 0
20.962452 102.03129 34.039124 0 0 0
20.287453 101.979 33.893925 0 0 0
20.722178 102.27838 33.680656 0 0 0
21.112453 102.30513 33.866234 0 0 0
20.099953 102.30803 33.399189 0 0 0
20.528522 102.58154 33.301041 0 0 0
20.979822 102.71055 33.450394 0 0 0
15.852978 102.23956 36.519691 0 0 0
15.920967 102.32196 36.09399 0 0 0
15.738932 102.5347 35.793987 0 0 0
15.816917 102.54666 35.343987 0 0 0
15.891978 102.08471 37.218987 0 0 0
15.562452 102.29538 36.799423 0 0 0
15.562452 102.39252 36.39399 0 0 0
15.547962 102.56541 36.068497 0 0 0
15.281153 102.91878 35.928131 0 0 0
15.537026 102.85638 35.325836 0 0 0
15.525185 102.26003 37.293987 0 0 0
15.23998 102.56042 37.14399 0 0 0
15.259897 102.59166 36.679111 0 0 0
15.302467 102.63989 36.39399 0 0 0
15.131434 102.89165 36.39399 0 0 0
15.171961 103.19166 35.699265 0 0 0
14.986399 102.97345 37.443989 0 0 0
14.935203 103.07045 36.993988 0 0 0
14.996649 103.0094 36.693989 0 0 0
14.959408 103.32549 36.175304 0 0 0
15.047371 103.63668 35.418987 0 0 0
15.378927 103.22699 35.043991 0 0 0
14.7784 103.65747 38.043991 0 0 0
14.711131 103.64166 37.59399 0 0 0
14.809453 103.34166 37.293987 0 0 0
14.766995 103.49166 36.843987 0 0 0
14.784735 103.64166 36.39399 0 0 0
14.807782 103.94166 35.868988 0 0 0
14.776146 103.94166 38.493988 0 0 0
14.638958 104.09344 38.041199 0 0 0
14.616663 103.92479 37.443989 0 0 0
14.668249 103.80524 36.819611 0 0 0
14.63572 104.18862 36.386421 0 0 0
14.728012 104.32373 38.64399 0 0 0
14.572332 104.54166 38.193989 0 0 0
14.528545 104.54166 37.89399 0 0 0
14.51053 104.54166 37.443989 0 0 0
14.5784 104.09166 37.14399 0 0 0
14.978065 104.22944 39.227661 0 0 0
14.902733 104.69166 39.221321 0 0 0
14.657406 104.69166 38.601456 0 0 0
14.649204 104.99166 38.608238 0 0 0
14.510247 104.99166 38.043991 0 0 0
15.204918 105.14166 39.824558 0 0 0
14.962414 105.14333 39.392693 0 0 0
14.825895 105.14166 39.09399 0 0 0
14.689294 105.36665 38.670532 0 0 0
14.580194 105.51666 38.193989 0 0 0
15.223757 105.59166 39.815247 0 0 0
14.903015 105.59166 39.221317 0 0 0
14.777693 105.89166 38.793987 0 0 0
14.669014 105.75584 38.46109 0 0 0
15.562452 105.61286 40.293987 0 0 0
15.49054 105.89166 40.124073 0 0 0
15.225167 105.89166 39.755074 0 0 0
14.944194 105.89166 39.207298 0 0 0
14.806173 106.19166 38.64399 0 0 0
14.715311 106.32657 38.186989 0 0 0
15.86707 105.77338 40.582329 0 0 0
15.822515 106.35658 40.331001 0 0 0
15.540894 106.32554 40.01252 0 0 0
15.324181 106.33427 39.689991 0 0 0
15.060149 106.26187 39.240238 0 0 0
14.935722 106.63408 38.557961 0 0 0
16.181751 105.74527 40.877632 0 0 0
16.116207 106.3591 40.629776 0 0 0
16.11813 106.93593 40.335201 0 0 0
15.832898 106.92742 40.030579 0 0 0
15.610245 106.96817 39.703773 0 0 0
15.271705 106.65932 39.385025 0 0 0
16.484911 105.74166 41.114426 0 0 0
16.433971 106.32852 40.910522 0 0 0
16.37405 106.79166 40.667435 0 0 0
16.627487 107.24166 40.59399 0 0 0
16.301006 107.42001 40.155567 0 0 0
15.873776 107.53088 39.53199 0 0 0
16.731779 106.0433 41.213905 0 0 0
16.836052 106.49166 41.145683 0 0 0
16.787136 106.97139 40.876755 0 0 0
17.062452 107.28696 40.881607 0 0 0
16.904987 107.70424 40.443916 0 0 0
17.200045 106.2075 41.43663 0 0 0
17.083643 106.62962 41.232101 0 0 0
17.538031 107.11942 41.209335 0 0 0
17.320704 107.49591 40.879005 0 0 0
17.532124 106.64764 41.417915 0 0 0
17.962452 106.96177 41.448612 0 0 0
17.798992 107.39801 41.150658 0 0 0
17.812452 107.7244 40.916351 0 0 0
17.792963 107.99877 40.662941 0 0 0
17.362452 107.93739 40.539696 0 0 0
18.355677 106.94569 41.552322 0 0 0
18.412453 107.4304 41.303123 0 0 0
18.262451 107.69166 41.095264 0 0 0
18.262451 107.96751 40.870373 0 0 0
18.262451 108.28255 40.489616 0 0 0
17.796242 108.5687 39.964092 0 0 0
18.712452 106.79166 41.680351 0 0 0
18.862452 107.20779 41.516144 0 0 0
18.691631 107.69473 41.177147 0 0 0
18.696548 108.00529 40.905201 0 0 0
19.312452 107.09166 41.587948 0 0 0
19.312452 107.33727 41.463188 0 0 0
19.312452 107.73036 41.193989 0 0 0
19.312452 108.02583 40.928673 0 0 0
18.70129 108.29268 40.572708 0 0 0
19.765224 106.64278 41.742435 0 0 0
19.762453 107.27598 41.462357 0 0 0
19.722012 107.69166 41.186028 0 0 0
19.944553 107.98692 40.882847 0 0 0
19.522905 108.35131 40.496498 0 0 0
19.162453 108.43538 40.426353 0 0 0
20.062452 106.79166 41.636803 0 0 0
20.218567 107.09166 41.449917 0 0 0
20.237118 107.44743 41.224014 0 0 0
20.212452 107.72922 41.029491 0 0 0
20.527542 108.02968 40.632763 0 0 0
20.062452 108.34093 40.397911 0 0 0
20.4841 106.81152 41.504089 0 0 0
20.662453 107.21362 41.22937 0 0 0
20.823515 107.69166 40.829983 0 0 0
21.10829 107.78137 40.59399 0 0 0
20.977076 108.1754 40.181332 0 0 0
20.662453 108.59509 39.797043 0 0 0
20.799307 106.46031 41.528236 0 0 0
21.0937 106.93794 41.177578 0 0 0
21.098181 107.40221 40.9091 0 0 0
21.585407 107.4099 40.625282 0 0 0
21.578011 107.70284 40.322598 0 0 0
21.398394 108.03181 40.034264 0 0 0
21.404598 106.46841 41.24931 0 0 0
21.703556 106.76938 40.953148 0 0 0
21.548119 107.07832 40.878128 0 0 0
21.888416 107.11858 40.632484 0 0 0
21.896837 107.42049 40.359184 0 0 0
21.8717 107.84773 39.851765 0 0 0
21.741379 106.19166 41.155621 0 0 0
22.047905 106.49166 40.860092 0 0 0
22.186178 106.80823 40.604141 0 0 0
22.325455 105.96217 40.827549 0 0 0
22.452332 106.37935 40.584747 0 0 0
22.476162 106.83212 40.308578 0 0 0
22.195095 107.1635 40.326653 0 0 0
22.198833 107.5596 39.866295 0 0 0
22.718596 105.74166 40.553623 0 0 0
22.771206 106.30788 40.303551 0 0 0
22.762453 106.8103 39.993988 0 0 0
22.483685 107.13914 40.02076 0 0 0
22.456261 107.53856 39.534142 0 0 0
22.189732 108.02203 39.236496 0 0 0
23.035244 105.44166 40.273613 0 0 0
23.018351 105.89166 40.175507 0 0 0
23.004084 106.34765 39.993988 0 0 0
23.056633 106.60208 39.725433 0 0 0
22.795597 107.14995 39.53006 0 0 0
22.574903 107.80605 38.947311 0 0 0
23.385296 105.14166 39.808521 0 0 0
23.304779 105.59166 39.865822 0 0 0
23.304234 106.02742 39.693989 0 0 0
23.324129 106.40698 39.39399 0 0 0
23.068989 106.96304 39.280006 0 0 0
22.818354 107.45795 39.09399 0 0 0
23.62801 105.14166 39.33989 0 0 0
23.56922 105.59166 39.39399 0 0 0
23.443928 106.04166 39.419487 0 0 0
23.58629 106.04166 39.036423 0 0 0
23.343061 106.6145 39.084568 0 0 0
23.752544 105.29166 38.979202 0 0 0
23.718777 105.6143 38.956535 0 0 0
23.759544 106.11295 38.262791 0 0 0
23.652048 106.16888 38.656616 0 0 0
23.470142 106.68773 38.568989 0 0 0
23.20973 107.09166 38.793987 0 0 0
23.909611 105.14166 38.493988 0 0 0
23.881836 105.59166 38.343987 0 0 0
23.916407 105.74166 37.747211 0 0 0
23.814396 106.19166 37.743988 0 0 0
23.58902 106.73204 38.043991 0 0 0
23.968639 104.84166 38.118988 0 0 0
23.963879 105.29877 37.974846 0 0 0
24.004246 105.44166 37.293987 0 0 0
23.931614 105.85468 37.14399 0 0 0
23.7957 106.34166 37.368988 0 0 0
24.00436 104.39166 37.443989 0 0 0
24.009598 104.84166 37.668991 0 0 0
24.016266 104.91666 37.14399 0 0 0
23.966404 105.4617 36.833809 0 0 0
23.824827 106.04166 36.543991 0 0 0
23.799561 106.34166 36.993988 0 0 0
23.932375 104.09166 37.083847 0 0 0
23.965925 104.54166 36.841698 0 0 0
23.870667 103.79166 37.14399 0 0 0
23.77874 103.64166 36.693989 0 0 0
23.810326 104.09166 36.243988 0 0 0
23.904406 104.54166 36.39399 0 0 0
23.951653 104.99166 36.517014 0 0 0
23.909554 105.44166 36.39399 0 0 0
23.718172 103.63465 36.383614 0 0 0
23.59338 103.63117 35.971611 0 0 0
23.645538 104.23584 35.661713 0 0 0
23.836088 104.54166 36.09399 0 0 0
23.860636 105.14166 36.09399 0 0 0
23.801432 105.74166 36.09399 0 0 0
23.369152 103.07202 36.026482 0 0 0
23.307539 103.3344 35.478817 0 0 0
23.42588 103.79166 35.346382 0 0 0
23.386909 104.16666 35.084167 0 0 0
23.515497 104.69166 35.193989 0 0 0
23.710924 104.84166 35.663132 0 0 0
23.293537 102.73546 36.36972 0 0 0
23.06731 102.57372 35.957714 0 0 0
23.127813 102.8868 35.636742 0 0 0
23.162056 103.33026 35.171337 0 0 0
23.088757 103.92671 34.682117 0 0 0
22.924274 102.29166 36.09399 0 0 0
22.809801 102.58119 35.39217 0 0 0
22.85183 102.88565 35.037693 0 0 0
22.85434 103.19166 34.753536 0 0 0
22.973362 103.47412 34.743988 0 0 0
22.483009 102.56938 34.834503 0 0 0
22.51018 102.85968 34.566299 0 0 0
22.462452 103.148 34.293987 0 0 0
22.735683 103.62209 34.325508 0 0 0
22.195871 102.52879 34.561592 0 0 0
22.039923 102.69876 34.256111 0 0 0
22.006084 103.19896 33.848896 0 0 0
22.367241 103.61888 33.943161 0 0 0
22.811184 104.09166 34.232323 0 0 0
23.019775 104.54166 34.414768 0 0 0
21.52623 102.73576 33.817574 0 0 0
21.430111 103.17406 33.425587 0 0 0
21.979511 103.49166 33.65097 0 0 0
21.887093 103.94166 33.380901 0 0 0
22.350788 104.16666 33.733208 0 0 0
22.726778 104.54166 34.032619 0 0 0
20.805988 103.19821 33.042763 0 0 0
21.103319 103.51491 33.04245 0 0 0
21.587265 103.42419 33.375622 0 0 0
20.640709 102.90962 33.116196 0 0 0
20.362452 102.81403 33.049923 0 0 0
20.23209 103.27325 32.786404 0 0 0
20.61095 103.5173 32.804466 0 0 0
20.935791 103.9167 32.807129 0 0 0
21.446766 103.79166 33.123619 0 0 0
19.912453 102.53706 33.09399 0 0 0
19.912453 102.92053 32.86739 0 0 0
19.912453 103.41666 32.66391 0 0 0
20.212452 103.94166 32.567825 0 0 0
20.662453 103.94166 32.688232 0 0 0
19.462452 102.34426 33.143791 0 0 0
19.612453 102.59166 32.991692 0 0 0
19.462452 102.89165 32.807423 0 0 0
19.462452 103.34166 32.630825 0 0 0
19.487404 103.93575 32.454277 0 0 0
19.762453 103.96202 32.473408 0 0 0
19.162453 102.59166 32.941242 0 0 0
19.012451 102.89165 32.80513 0 0 0
19.012451 103.34166 32.632141 0 0 0
19.005241 103.93296 32.454681 0 0 0
18.712452 102.59166 32.987755 0 0 0
18.562452 103.06675 32.764469 0 0 0
18.412453 103.49166 32.627357 0 0 0
18.083733 102.60312 33.109497 0 0 0
18.262451 103.02138 32.835297 0 0 0
17.834402 103.22729 32.876343 0 0 0
17.76366 103.51562 32.788303 0 0 0
18.116703 103.95341 32.577629 0 0 0
18.562452 103.96064 32.475262 0 0 0
17.806097 102.89165 33.037601 0 0 0
17.3419 103.03146 33.149868 0 0 0
17.396416 103.64166 32.879227 0 0 0
17.662453 103.94166 32.700233 0 0 0
17.043041 102.87231 33.39399 0 0 0
16.647549 102.84601 33.691494 0 0 0
16.918682 103.19166 33.304222 0 0 0
16.174881 103.0033 34.00803 0 0 0
16.417765 103.16048 33.675545 0 0 0
16.481562 103.61266 33.407639 0 0 0
16.912453 103.48574 33.180115 0 0 0
15.921595 103.01694 34.285103 0 0 0
15.874754 103.54459 34.006836 0 0 0
16.148773 103.66046 33.673355 0 0 0
16.275848 104.09166 33.432976 0 0 0
16.867741 103.85455 33.08688 0 0 0
15.842431 102.83784 34.562675 0 0 0
15.516533 103.35074 34.611946 0 0 0
15.586786 103.6274 34.329292 0 0 0
15.765078 103.94166 33.973091 0 0 0
15.906981 104.24166 33.738907 0 0 0
15.597252 102.94595 34.89399 0 0 0
15.172371 103.67349 35.058098 0 0 0
15.299895 103.79166 34.716248 0 0 0
15.535635 104.31667 34.1549 0 0 0
15.027627 104.25653 35.038078 0 0 0
15.260357 104.26962 34.579674 0 0 0
15.306326 104.69166 34.416382 0 0 0
15.58394 104.84166 34.019936 0 0 0
14.836681 104.24166 35.493988 0 0 0
14.821981 104.69166 35.343987 0 0 0
14.994499 104.69166 34.957088 0 0 0
14.677431 104.39166 35.911705 0 0 0
14.628383 104.69408 35.943989 0 0 0
14.705149 104.99166 35.620453 0 0 0
14.865377 105.14166 35.193989 0 0 0
14.984266 105.14166 34.935936 0 0 0
15.30444 105.14166 34.414711 0 0 0
14.53774 104.84166 36.39399 0 0 0
14.547506 105.29166 36.243988 0 0 0
14.622729 105.51215 35.935368 0 0 0
14.759417 105.44166 35.493988 0 0 0
14.991948 105.66666 35.004341 0 0 0
14.532064 104.54166 36.843987 0 0 0
14.475969 105.14166 36.843987 0 0 0
14.478504 105.59166 36.693989 0 0 0
14.528414 105.89166 36.543991 0 0 0
14.641741 105.89166 35.967957 0 0 0
14.82266 106.04166 35.493988 0 0 0
14.457051 105.14166 37.368988 0 0 0
14.460767 105.59166 37.14399 0 0 0
14.53506 106.04166 37.14399 0 0 0
14.634926 106.325 36.543991 0 0 0
14.708151 106.19166 35.943989 0 0 0
14.480427 105.29166 37.743988 0 0 0
14.533157 105.74166 37.743988 0 0 0
14.602924 106.19166 37.743988 0 0 0
14.690131 106.66482 37.293987 0 0 0
14.694939 106.65833 36.993988 0 0 0
14.670436 106.47295 37.770367 0 0 0
14.754543 106.79166 37.59399 0 0 0
14.863364 107.09166 37.14399 0 0 0
14.786722 106.79166 36.543991 0 0 0
14.826886 106.56667 35.943989 0 0 0
14.926742 106.96947 38.055153 0 0 0
14.977686 107.25778 37.51899 0 0 0
15.001063 107.3285 36.993988 0 0 0
14.946618 107.20274 36.693989 0 0 0
14.959919 107.09562 36.28484 0 0 0
15.081529 107.09166 38.493988 0 0 0
15.108324 107.39166 38.043991 0 0 0
15.241558 107.72218 37.59399 0 0 0
15.236425 107.73143 37.14399 0 0 0
15.269102 107.70963 36.580029 0 0 0
15.219739 107.50731 36.168991 0 0 0
15.123748 106.79166 38.943989 0 0 0
15.252869 107.0938 38.926048 0 0 0
15.252918 107.40664 38.542973 0 0 0
15.262452 107.6368 38.035515 0 0 0
15.507303 108.05507 37.59399 0 0 0
15.572783 107.19716 39.426537 0 0 0
15.635317 107.55809 39.104431 0 0 0
15.821941 108.03876 38.793987 0 0 0
15.588812 107.87961 38.493988 0 0 0
15.88278 108.28011 38.36903 0 0 0
15.809165 108.35038 37.89399 0 0 0
15.880894 107.9695 39.033043 0 0 0
16.142017 108.30841 38.865437 0 0 0
16.162453 107.85482 39.536987 0 0 0
16.345837 108.25871 39.236359 0 0 0
16.602303 108.48894 39.175121 0 0 0
16.612452 108.68989 38.781517 0 0 0
16.27688 108.58924 38.415012 0 0 0
16.108274 108.63425 37.89399 0 0 0
16.444626 107.72416 40.012844 0 0 0
16.762451 108.29166 39.671337 0 0 0
17.035015 108.53162 39.556435 0 0 0
17.033636 108.8602 38.960831 0 0 0
16.912453 108.98981 38.493988 0 0 0
16.506504 108.86578 38.026558 0 0 0
17.062452 108.12001 40.109058 0 0 0
17.508972 108.65454 39.696083 0 0 0
17.49332 108.84082 39.39399 0 0 0
17.495636 108.98735 39.122841 0 0 0
17.362452 109.1414 38.64399 0 0 0
17.962452 108.92448 39.513504 0 0 0
18.074409 109.18678 39.084045 0 0 0
17.808685 109.31643 38.568989 0 0 0
17.362452 109.30042 38.193989 0 0 0
16.920364 109.10706 38.088272 0 0 0
18.262451 108.63322 40.047691 0 0 0
18.262451 108.97885 39.53801 0 0 0
18.562452 109.21445 39.209747 0 0 0
18.112452 109.32161 38.793987 0 0 0
18.432819 109.55984 38.262459 0 0 0
17.823717 109.44343 38.183395 0 0 0
18.712452 108.64643 40.119293 0 0 0
18.712452 108.91812 39.734142 0 0 0
19.012451 109.17136 39.358284 0 0 0
19.012451 109.30917 39.09399 0 0 0
18.562452 109.45427 38.661514 0 0 0
19.162453 108.84975 39.874596 0 0 0
19.462452 109.23342 39.22049 0 0 0
19.612453 109.44034 38.738121 0 0 0
19.012451 109.50465 38.606747 0 0 0
19.462452 108.83803 39.870361 0 0 0
19.762453 109.21101 39.207436 0 0 0
20.212452 109.30176 38.793987 0 0 0
19.928288 109.48358 38.458889 0 0 0
19.912453 109.5868 38.043991 0 0 0
19.462452 109.64967 38.043991 0 0 0
19.762453 108.91084 39.721367 0 0 0
20.033918 108.97401 39.53334 0 0 0
20.235855 109.18239 39.061882 0 0 0
20.807348 109.03495 38.936546 0 0 0
20.512451 109.32756 38.493988 0 0 0
20.482063 109.42114 38.193989 0 0 0
20.424789 108.87793 39.49427 0 0 0
20.936571 108.65295 39.534992 0 0 0
21.391796 108.63065 39.168991 0 0 0
21.262453 108.89166 38.81118 0 0 0
21.22578 109.08629 38.343987 0 0 0
20.951921 109.2216 38.320633 0 0 0
21.392746 108.32384 39.658863 0 0 0
21.820986 108.29088 39.279057 0 0 0
21.784193 108.62299 38.678421 0 0 0
21.554131 108.8868 38.38525 0 0 0
21.687103 108.93665 37.89399 0 0 0
21.112453 109.25661 37.882881 0 0 0
22.196558 108.32253 38.64399 0 0 0
21.987623 108.64639 38.193989 0 0 0
22.170889 108.60258 37.743988 0 0 0
21.862452 108.88092 37.439884 0 0 0
21.432096 109.13752 37.51899 0 0 0
22.684925 107.91779 38.493988 0 0 0
22.457525 108.28027 38.073616 0 0 0
22.517111 108.34267 37.443989 0 0 0
22.208523 108.62953 37.293987 0 0 0
23.053574 107.37896 38.742935 0 0 0
23.086533 107.52795 38.26899 0 0 0
22.772228 107.97285 38.085205 0 0 0
22.812937 108.04674 37.443989 0 0 0
22.515793 108.34193 36.843987 0 0 0
22.202021 108.62527 36.843987 0 0 0
23.354473 107.10382 38.294418 0 0 0
23.382381 107.20418 37.89399 0 0 0
23.078121 107.69076 37.739975 0 0 0
23.402452 107.21517 37.51899 0 0 0
23.081711 107.71869 37.14399 0 0 0
22.809456 108.04336 36.843987 0 0 0
22.481541 108.28241 36.278961 0 0 0
23.644218 106.74978 37.443989 0 0 0
23.409992 107.21693 37.068989 0 0 0
23.401077 107.21474 36.693989 0 0 0
23.07617 107.69166 36.615654 0 0 0
22.756632 107.97801 36.217651 0 0 0
23.630192 106.77834 36.843987 0 0 0
23.600956 106.66306 36.390846 0 0 0
23.374531 107.10249 36.26786 0 0 0
23.110489 107.51649 36.243988 0 0 0
22.821577 107.76793 35.793987 0 0 0
22.547791 108.07729 35.793987 0 0 0
23.673458 106.30476 36.09399 0 0 0
23.593018 106.34166 35.822639 0 0 0
23.332724 106.97347 35.793987 0 0 0
23.077148 107.39166 35.748215 0 0 0
23.565193 106.05031 35.560524 0 0 0
23.361664 106.62593 35.470573 0 0 0
23.091389 107.20964 35.493988 0 0 0
22.676926 107.68607 35.343987 0 0 0
22.435688 107.95459 35.328369 0 0 0
23.688557 105.59166 35.669449 0 0 0
23.42778 105.59166 35.067764 0 0 0
23.318649 106.04166 35.021538 0 0 0
23.010338 106.49166 34.718811 0 0 0
23.059109 106.89671 35.109436 0 0 0
22.738352 107.36363 35.03289 0 0 0
23.713963 105.29166 35.659286 0 0 0
23.52071 105.14166 35.193989 0 0 0
23.366821 105.14166 34.89399 0 0 0
23.047354 105.29166 34.400818 0 0 0
23.022842 105.59166 34.411751 0 0 0
23.073559 106.01573 34.5882 0 0 0
23.352654 104.54166 34.911919 0 0 0
23.050854 104.99166 34.399872 0 0 0
22.746113 105.44166 34.03178 0 0 0
22.732414 105.89166 34.10537 0 0 0
22.752989 106.37523 34.305908 0 0 0
22.762453 104.99166 34.016354 0 0 0
22.462452 105.10995 33.695732 0 0 0
22.424065 105.74166 33.73159 0 0 0
22.485567 106.31714 33.969402 0 0 0
22.479797 106.91391 34.274193 0 0 0
22.744896 106.96093 34.647633 0 0 0
22.462452 104.69166 33.72356 0 0 0
22.162453 104.99166 33.418545 0 0 0
22.140989 105.44166 33.42762 0 0 0
22.04657 105.89166 33.432709 0 0 0
22.1859 106.32718 33.678314 0 0 0
22.161146 106.91866 33.94902 0 0 0
22.118778 104.54166 33.431633 0 0 0
21.752686 104.99166 33.113869 0 0 0
21.748709 105.36665 33.132141 0 0 0
21.591774 105.74166 33.079269 0 0 0
21.504202 106.19166 33.129574 0 0 0
21.763962 106.4274 33.382767 0 0 0
21.862452 104.54166 33.228233 0 0 0
21.615049 104.54166 33.060173 0 0 0
21.096405 104.69166 32.74614 0 0 0
21.2314 105.14166 32.809883 0 0 0
21.228039 105.74166 32.872337 0 0 0
21.262453 106.32942 33.04435 0 0 0
21.412453 104.09166 33.01741 0 0 0
21.081245 104.39166 32.769218 0 0 0
20.503174 104.42784 32.547852 0 0 0
20.534275 104.84166 32.52829 0 0 0
20.962452 105.14166 32.682232 0 0 0
20.062452 104.54166 32.4226 0 0 0
20.062452 104.99166 32.39249 0 0 0
20.123241 105.44166 32.445206 0 0 0
20.517332 105.30737 32.537506 0 0 0
20.812452 105.59166 32.668205 0 0 0
19.762453 104.39166 32.391972 0 0 0
19.612453 104.84166 32.343834 0 0 0
19.612453 105.29166 32.345001 0 0 0
19.312452 104.39166 32.366112 0 0 0
19.162453 104.84166 32.315742 0 0 0
19.012451 105.29166 32.317947 0 0 0
19.162453 105.74166 32.380455 0 0 0
19.537453 105.74166 32.399643 0 0 0
18.712452 104.39166 32.384014 0 0 0
18.862452 104.84166 32.323769 0 0 0
18.412453 104.84166 32.40049 0 0 0
18.412453 105.29166 32.396503 0 0 0
18.712452 105.59166 32.381069 0 0 0
18.079607 104.39166 32.507301 0 0 0
17.662453 104.54166 32.611305 0 0 0
17.982311 104.84166 32.497639 0 0 0
17.984434 105.29166 32.493988 0 0 0
18.148924 105.59166 32.484879 0 0 0
18.283661 106.03084 32.543179 0 0 0
18.712452 106.01334 32.471638 0 0 0
17.17617 104.54166 32.813313 0 0 0
17.512451 105.14166 32.660561 0 0 0
17.737453 105.74166 32.642067 0 0 0
17.79328 106.20354 32.728436 0 0 0
18.106413 106.57625 32.761009 0 0 0
18.712452 106.49166 32.61525 0 0 0
17.212452 104.07754 32.858284 0 0 0
16.738091 104.54166 33.037209 0 0 0
16.585131 105.14166 33.138702 0 0 0
17.1241 105.14166 32.823669 0 0 0
17.311935 105.59166 32.770409 0 0 0
17.366901 106.03333 32.839615 0 0 0
16.504143 104.54166 33.195091 0 0 0
16.200504 104.54166 33.424232 0 0 0
16.200649 105.14166 33.407677 0 0 0
16.223309 105.59166 33.445053 0 0 0
16.612452 105.62235 33.173393 0 0 0
17.062452 105.74166 32.924503 0 0 0
15.876743 104.84166 33.693989 0 0 0
15.898809 105.44166 33.715279 0 0 0
16.123013 106.07379 33.658604 0 0 0
16.447464 106.02544 33.37825 0 0 0
16.776928 106.04166 33.160233 0 0 0
15.590561 105.29166 34.028656 0 0 0
15.611505 105.74166 34.113846 0 0 0
15.706134 106.11665 34.097237 0 0 0
15.877631 106.41771 34.010174 0 0 0
16.197632 106.49166 33.724705 0 0 0
16.577705 106.49166 33.429939 0 0 0
15.251648 105.73742 34.578461 0 0 0
15.293379 106.19166 34.640404 0 0 0
15.510183 106.49166 34.469643 0 0 0
16.128693 106.90021 34.014793 0 0 0
16.495033 106.96358 33.72002 0 0 0
15.055189 106.14099 35.039803 0 0 0
15.159998 106.51518 35.036446 0 0 0
15.276575 106.84797 35.084412 0 0 0
15.594698 107.02731 34.720512 0 0 0
15.871576 106.97369 34.322678 0 0 0
16.320843 107.36927 34.14399 0 0 0
14.954894 106.52974 35.475662 0 0 0
15.152655 106.95818 35.456619 0 0 0
15.618276 107.4136 35.031487 0 0 0
15.871624 107.36414 34.605766 0 0 0
15.022705 106.94166 35.783375 0 0 0
15.309427 107.40174 35.62627 0 0 0
15.701059 107.84877 35.481445 0 0 0
15.847191 107.7435 35.06118 0 0 0
16.309498 107.84166 34.580078 0 0 0
15.563816 107.87991 35.868988 0 0 0
15.877028 108.27582 35.914963 0 0 0
16.143661 108.3278 35.460369 0 0 0
16.201706 108.11536 35.043991 0 0 0
15.51302 108.05399 36.543991 0 0 0
15.792489 108.36072 36.543991 0 0 0
16.142742 108.61017 36.243988 0 0 0
16.267017 108.57848 35.793987 0 0 0
16.452831 108.59166 35.479012 0 0 0
16.468391 108.35921 35.050751 0 0 0
15.454927 108.03317 37.14399 0 0 0
15.619354 108.23141 36.993988 0 0 0
16.065399 108.64828 36.843987 0 0 0
16.415771 108.92522 36.693989 0 0 0
16.481846 108.88295 36.21772 0 0 0
16.78755 108.87598 35.616489 0 0 0
15.78297 108.37652 37.443989 0 0 0
16.071182 108.67148 37.293987 0 0 0
16.402391 108.9327 37.14399 0 0 0
16.935143 109.23431 36.843987 0 0 0
16.881926 109.16139 36.39399 0 0 0
16.914797 109.08923 36.01899 0 0 0
16.081343 108.66034 37.59399 0 0 0
16.425941 108.91653 37.59399 0 0 0
16.93165 109.20404 37.668991 0 0 0
16.928493 109.24562 37.293987 0 0 0
17.549007 109.50452 37.14399 0 0 0
17.362452 109.39298 36.543991 0 0 0
17.362452 109.38956 37.743988 0 0 0
17.794491 109.5529 37.59399 0 0 0
18.112452 109.65092 37.068989 0 0 0
17.809059 109.54151 36.556633 0 0 0
17.731735 109.40001 35.938179 0 0 0
17.362452 109.32035 36.09399 0 0 0
17.822729 109.52077 37.858673 0 0 0
18.412453 109.65096 37.818989 0 0 0
18.262451 109.67201 37.443989 0 0 0
18.712452 109.73666 36.993988 0 0 0
18.712452 109.69481 36.543991 0 0 0
18.262451 109.64401 36.543991 0 0 0
19.012451 109.63207 38.193989 0 0 0
19.012451 109.70185 37.743988 0 0 0
18.712452 109.73277 37.293987 0 0 0
19.312452 109.73758 37.293987 0 0 0
19.312452 109.74502 36.993988 0 0 0
19.162453 109.71166 36.543991 0 0 0
19.612453 109.70547 37.59399 0 0 0
20.212452 109.60211 37.59399 0 0 0
20.212452 109.62328 37.293987 0 0 0
19.762453 109.70677 37.293987 0 0 0
19.912453 109.66908 36.918987 0 0 0
19.462452 109.69736 36.543991 0 0 0
20.579294 109.47018 37.751961 0 0 0
20.816704 109.42961 37.391571 0 0 0
20.362452 109.57436 36.843987 0 0 0
21.436855 109.14917 37.068989 0 0 0
20.812452 109.43637 36.97155 0 0 0
20.515852 109.47618 36.426636 0 0 0
19.912453 109.62781 36.46899 0 0 0
19.312452 109.63173 36.09399 0 0 0
21.712452 108.97006 36.760773 0 0 0
21.280136 109.19836 36.543991 0 0 0
20.962452 109.33813 36.543991 0 0 0
20.812452 109.32449 36.09399 0 0 0
20.188938 109.51245 36.09399 0 0 0
19.762453 109.60133 36.09399 0 0 0
21.701113 108.91502 36.318989 0 0 0
21.197449 109.15754 36.09399 0 0 0
20.962452 109.12097 35.64399 0 0 0
20.43745 109.31073 35.64399 0 0 0
19.877214 109.49491 35.786194 0 0 0
19.237453 109.51706 35.664677 0 0 0
22.141933 108.57495 36.243988 0 0 0
21.888811 108.69275 35.943989 0 0 0
21.412453 108.95925 35.812805 0 0 0
21.418674 108.79482 35.4151 0 0 0
20.904339 108.86894 35.018387 0 0 0
20.662453 109.1209 35.343987 0 0 0
22.242462 108.36159 35.793987 0 0 0
21.848488 108.58133 35.539909 0 0 0
22.166176 108.21922 35.336967 0 0 0
21.884855 108.30899 35.072773 0 0 0
21.562452 108.51703 35.030853 0 0 0
21.270298 108.51703 34.72892 0 0 0
22.306925 107.82616 34.925026 0 0 0
21.706795 108.13586 34.606995 0 0 0
21.14719 108.27689 34.311352 0 0 0
20.812962 108.65823 34.593636 0 0 0
20.237724 108.8779 34.606049 0 0 0
20.212452 109.08318 34.957481 0 0 0
22.462452 107.37096 34.61377 0 0 0
22.03101 107.69166 34.431961 0 0 0
21.558567 107.83825 34.14645 0 0 0
21.08058 108.00733 33.979233 0 0 0
20.488129 108.30576 33.979214 0 0 0
20.532547 108.56975 34.313408 0 0 0
22.016914 107.38718 34.14399 0 0 0
21.382915 107.37723 33.647217 0 0 0
21.140335 107.66531 33.713898 0 0 0
20.555418 107.98581 33.699158 0 0 0
21.829067 106.92079 33.667503 0 0 0
21.562452 106.93227 33.4832 0 0 0
21.025434 107.23264 33.354977 0 0 0
20.51083 107.65558 33.420181 0 0 0
20.062452 107.87113 33.44474 0 0 0
19.912453 108.24622 33.737854 0 0 0
21.121698 106.79166 33.165131 0 0 0
20.651106 106.93391 33.029774 0 0 0
20.512451 107.35348 33.213646 0 0 0
19.898811 107.40261 33.08416 0 0 0
19.762453 107.81436 33.345211 0 0 0
20.828403 106.32202 32.853203 0 0 0
20.393986 106.65379 32.830109 0 0 0
20.212452 107.09166 32.976204 0 0 0
19.762453 106.96802 32.828823 0 0 0
19.312452 107.56999 33.13932 0 0 0
19.312452 107.96056 33.418194 0 0 0
20.980858 105.92242 32.793987 0 0 0
20.512451 105.89166 32.625374 0 0 0
20.212452 106.19166 32.62114 0 0 0
19.908249 106.56458 32.684921 0 0 0
19.312452 106.79166 32.711807 0 0 0
19.312452 107.02999 32.824821 0 0 0
19.903839 105.93271 32.490273 0 0 0
19.312452 106.33466 32.547241 0 0 0
18.862452 106.90869 32.771393 0 0 0
20.062452 108.55776 34.106216 0 0 0
19.612453 108.96869 34.563736 0 0 0
19.612453 109.23804 35.057411 0 0 0
20.184113 109.2719 35.352806 0 0 0
19.612453 108.56372 34.025665 0 0 0
19.612453 108.80631 34.324993 0 0 0
19.18536 109.10801 34.741943 0 0 0
19.162453 109.34737 35.193989 0 0 0
19.612453 109.44048 35.5243 0 0 0
19.312452 108.27193 33.693989 0 0 0
19.012451 108.56772 33.993988 0 0 0
19.012451 108.85165 34.348804 0 0 0
18.712452 108.97551 34.560863 0 0 0
18.735691 109.18378 34.908295 0 0 0
18.862452 108.26981 33.693989 0 0 0
18.412453 108.24117 33.743896 0 0 0
18.412453 108.6394 34.173759 0 0 0
18.139206 108.89516 34.577988 0 0 0
18.262451 109.21146 35.080101 0 0 0
18.712452 109.32877 35.193989 0 0 0
18.862452 107.96002 33.419632 0 0 0
18.412453 107.96458 33.490215 0 0 0
17.84853 107.99947 33.68644 0 0 0
17.833435 108.30266 33.973392 0 0 0
17.77935 108.62953 34.372543 0 0 0
17.812452 108.98589 34.868721 0 0 0
18.862452 107.56868 33.140137 0 0 0
18.412453 107.71925 33.303818 0 0 0
17.812452 107.63223 33.413429 0 0 0
17.092724 107.55679 33.713322 0 0 0
17.173065 107.97994 34.004688 0 0 0
17.228727 108.29453 34.278744 0 0 0
18.424759 106.9464 32.855927 0 0 0
18.440212 107.39491 33.085281 0 0 0
17.836451 107.1731 33.116798 0 0 0
17.305679 107.21178 33.371613 0 0 0
16.762451 107.28243 33.715622 0 0 0
16.770351 107.83562 34.14399 0 0 0
17.512451 106.56667 32.953331 0 0 0
17.223183 106.78073 33.179321 0 0 0
16.798218 106.76888 33.405277 0 0 0
17.043758 106.31438 33.082909 0 0 0
18.862452 109.5188 35.667725 0 0 0
18.862452 109.64616 36.09399 0 0 0
18.412453 109.59193 36.09399 0 0 0
18.562452 109.50157 35.68309 0 0 0
18.115858 109.40781 35.64399 0 0 0
17.737453 109.18484 35.309273 0 0 0
17.373421 109.19672 35.663712 0 0 0
17.399235 108.93614 35.057796 0 0 0
17.073357 108.93307 35.36821 0 0 0
16.878071 108.57465 34.942291 0 0 0
17.198364 108.52538 34.584663 0 0 0
16.795673 108.29166 34.59399 0 0 0
16.462452 107.69166 34.269093 0 0 0
0 0 0 1 0 0 0 1 0 0 0 1 0 0 0 0 0 1050 1 0 0
