ply
format ascii 1.0
comment PCL generated
element vertex 1189
property float x
property float y
property float z
property uchar red
property uchar green
property uchar blue
element camera 1
property float view_px
property float view_py
property float view_pz
property float x_axisx
property float x_axisy
property float x_axisz
property float y_axisx
property float y_axisy
property float y_axisz
property float z_axisx
property float z_axisy
property float z_axisz
property float focal
property float scalex
property float scaley
property float centerx
property float centery
property int viewportx
property int viewporty
property float k1
property float k2
end_header
-75.63755 -76.208916 -120.2068 0 0 0
-75.585114 -75.908348 -121.25602 0 0 0
-75.629929 -75.908348 -120.76497 0 0 0
-75.471375 -76.208351 -121.70602 0 0 0
-75.603188 -76.231644 -122.14743 0 0 0
-75.63755 -77.108345 -122.74355 0 0 0
-75.63755 -76.814804 -122.60602 0 0 0
-77.13755 -79.945892 -122.15602 0 0 0
-77.437553 -80.230515 -121.25602 0 0 0
-77.598099 -80.177864 -120.22752 0 0 0
-77.021271 -78.608345 -119.30602 0 0 0
-77.144455 -78.888718 -119.332 0 0 0
-76.869217 -78.292572 -119.02484 0 0 0
-77.13755 -78.620712 -118.97273 0 0 0
-76.780502 -77.708351 -118.62018 0 0 0
-76.837555 -77.968925 -118.70602 0 0 0
-77.092651 -78.434418 -118.70602 0 0 0
-76.591736 -77.408348 -118.76975 0 0 0
-76.327866 -76.958344 -119.00602 0 0 0
-76.634079 -76.531075 -118.55492 0 0 0
-76.83152 -77.127808 -118.38165 0 0 0
-75.953842 -76.292404 -119.63061 0 0 0
-76.156677 -76.486366 -119.269 0 0 0
-76.365707 -76.358353 -119.00602 0 0 0
-75.807747 -76.208351 -119.90602 0 0 0
-75.81601 -75.93335 -120.1298 0 0 0
-75.913704 -75.608345 -120.14954 0 0 0
-76.223221 -75.608345 -119.49592 0 0 0
-76.386818 -75.865494 -119.09797 0 0 0
-75.664688 -75.96212 -120.50602 0 0 0
-75.750793 -75.608345 -120.65602 0 0 0
-75.814262 -75.30835 -120.50602 0 0 0
-76.01088 -75.155968 -120.04845 0 0 0
-76.404526 -75.383347 -119.19897 0 0 0
-75.652763 -75.676437 -121.25602 0 0 0
-75.700943 -75.30835 -121.25602 0 0 0
-75.738159 -75.30835 -120.80602 0 0 0
-75.748894 -75.008347 -120.80602 0 0 0
-75.821953 -75.008347 -120.50602 0 0 0
-75.656532 -75.642952 -121.85602 0 0 0
-75.676834 -75.30835 -121.85602 0 0 0
-75.730316 -75.008347 -121.33102 0 0 0
-75.808914 -74.708351 -121.25602 0 0 0
-75.83429 -74.708351 -120.80602 0 0 0
-75.604424 -75.908348 -121.70602 0 0 0
-75.665451 -75.925995 -122.15602 0 0 0
-75.714668 -75.608345 -122.45602 0 0 0
-75.73439 -75.30835 -122.45602 0 0 0
-75.742104 -75.008347 -122.15602 0 0 0
-75.806557 -74.708351 -121.85602 0 0 0
-75.751289 -76.208351 -122.60602 0 0 0
-75.835831 -75.608345 -123.05602 0 0 0
-75.8843 -75.303787 -123.05602 0 0 0
-75.933037 -74.852798 -122.75952 0 0 0
-75.915146 -74.589401 -122.30602 0 0 0
-75.599411 -76.508347 -122.37242 0 0 0
-75.725243 -76.508347 -122.60602 0 0 0
-75.844299 -76.358353 -122.90602 0 0 0
-75.90831 -75.908348 -123.33887 0 0 0
-76.021461 -75.758347 -123.62321 0 0 0
-75.914543 -76.80835 -122.94281 0 0 0
-75.942749 -76.33876 -123.2942 0 0 0
-76.056259 -76.208351 -123.80602 0 0 0
-76.216354 -76.208351 -124.13994 0 0 0
-76.218224 -75.758347 -124.01751 0 0 0
-76.10144 -75.158348 -123.50602 0 0 0
-75.893982 -77.108345 -122.90602 0 0 0
-76.037888 -76.80835 -123.20602 0 0 0
-76.05822 -76.658348 -123.50602 0 0 0
-76.073372 -76.508347 -123.80602 0 0 0
-75.937553 -77.408348 -123.01353 0 0 0
-76.135498 -77.108345 -123.20602 0 0 0
-76.266685 -77.276855 -123.50602 0 0 0
-76.30632 -77.258347 -123.77526 0 0 0
-76.144791 -76.80835 -123.80602 0 0 0
-76.2136 -76.508347 -124.1461 0 0 0
-75.937553 -77.708351 -123.10858 0 0 0
-76.163704 -77.408348 -123.20602 0 0 0
-76.237549 -77.55835 -123.30838 0 0 0
-76.405495 -77.708351 -123.50602 0 0 0
-75.937553 -78.008347 -123.15029 0 0 0
-76.139999 -77.708351 -123.20602 0 0 0
-76.210846 -78.033623 -123.21115 0 0 0
-76.616241 -78.158348 -123.50229 0 0 0
-76.530228 -77.814453 -123.80602 0 0 0
-76.237549 -78.608345 -123.10442 0 0 0
-76.309006 -78.30835 -123.1875 0 0 0
-76.537552 -78.908348 -123.06416 0 0 0
-76.549118 -78.588348 -123.19347 0 0 0
-76.537552 -78.30835 -123.29681 0 0 0
-76.569931 -79.208351 -122.89629 0 0 0
-76.837555 -79.277313 -122.97214 0 0 0
-76.805145 -78.931091 -123.22475 0 0 0
-76.904137 -78.766579 -123.5168 0 0 0
-76.837555 -79.557106 -122.66876 0 0 0
-77.103653 -79.521042 -122.92622 0 0 0
-77.204132 -79.434273 -123.20602 0 0 0
-77.001717 -79.208351 -123.20602 0 0 0
-77.136963 -79.068298 -123.66855 0 0 0
-76.856857 -78.495468 -123.80602 0 0 0
-77.13755 -79.772659 -122.53902 0 0 0
-77.346191 -79.872208 -122.60602 0 0 0
-77.467827 -79.775864 -123.05602 0 0 0
-77.473541 -79.480118 -123.66853 0 0 0
-77.451965 -80.097321 -122.18442 0 0 0
-77.726494 -80.199196 -122.50891 0 0 0
-77.77478 -80.108345 -122.90602 0 0 0
-77.740395 -79.875015 -123.35123 0 0 0
-77.437553 -80.197586 -121.70602 0 0 0
-77.903656 -80.477753 -122.00602 0 0 0
-78.000977 -80.431374 -122.45602 0 0 0
-78.111542 -80.357971 -122.90602 0 0 0
-78.067154 -80.089752 -123.38316 0 0 0
-78.119141 -80.662056 -121.70602 0 0 0
-78.331276 -80.705406 -122.13723 0 0 0
-78.337555 -80.544876 -122.75602 0 0 0
-78.354904 -80.397842 -123.16235 0 0 0
-78.381157 -80.107353 -123.69233 0 0 0
-78.023666 -79.816956 -123.83255 0 0 0
-78.153366 -80.677155 -121.40602 0 0 0
-78.487549 -80.809219 -121.70602 0 0 0
-78.787552 -80.851494 -122.15602 0 0 0
-78.623001 -80.676392 -122.76614 0 0 0
-78.787552 -80.563614 -123.20602 0 0 0
-78.815979 -80.417511 -123.52417 0 0 0
-77.878906 -80.416306 -120.65602 0 0 0
-78.356094 -80.671432 -120.86174 0 0 0
-78.787552 -80.87674 -121.10602 0 0 0
-78.787552 -80.911057 -121.40602 0 0 0
-79.084213 -80.979156 -121.76599 0 0 0
-78.043823 -80.355225 -120.06822 0 0 0
-78.480499 -80.528175 -120.04956 0 0 0
-78.789581 -80.788383 -120.65938 0 0 0
-79.354263 -80.993607 -120.80602 0 0 0
-79.226799 -81.011826 -121.27191 0 0 0
-77.756714 -80.101807 -119.73972 0 0 0
-78.037552 -80.093048 -119.41468 0 0 0
-78.48864 -80.35025 -119.60602 0 0 0
-79.087555 -80.575562 -119.60602 0 0 0
-79.056252 -80.699249 -119.95901 0 0 0
-79.237549 -80.864838 -120.35602 0 0 0
-77.683281 -79.828659 -119.27438 0 0 0
-77.986008 -79.819626 -118.99084 0 0 0
-78.490402 -80.102982 -119.15437 0 0 0
-79.113602 -80.380547 -119.22606 0 0 0
-79.537552 -80.529594 -119.30602 0 0 0
-79.537552 -80.741005 -119.77757 0 0 0
-77.410507 -79.52681 -119.28299 0 0 0
-77.555229 -79.358353 -118.85602 0 0 0
-77.770859 -79.581345 -118.86902 0 0 0
-78.26741 -79.543587 -118.5238 0 0 0
-78.503494 -79.81131 -118.69085 0 0 0
-78.937553 -80.067245 -118.82762 0 0 0
-77.403793 -79.238068 -118.97618 0 0 0
-77.392853 -78.942604 -118.67311 0 0 0
-77.69754 -79.077408 -118.45799 0 0 0
-77.977051 -79.229294 -118.3884 0 0 0
-77.246239 -78.908348 -119.00602 0 0 0
-77.412033 -78.641464 -118.3542 0 0 0
-77.711548 -78.620728 -118.09795 0 0 0
-78.187553 -78.860718 -117.98328 0 0 0
-78.472084 -79.20385 -118.11859 0 0 0
-76.752785 -78.159019 -124.10693 0 0 0
-76.537552 -77.713165 -124.11195 0 0 0
-76.371902 -77.258347 -124.10602 0 0 0
-76.237549 -76.818291 -124.10602 0 0 0
-77.104324 -78.723816 -124.10602 0 0 0
-76.909668 -78.171478 -124.40602 0 0 0
-76.59787 -77.55835 -124.39372 0 0 0
-76.455383 -76.958344 -124.43063 0 0 0
-76.390152 -76.358353 -124.40602 0 0 0
-77.293983 -79.208351 -123.80602 0 0 0
-77.45372 -79.191711 -124.06348 0 0 0
-77.614914 -79.045486 -124.3929 0 0 0
-77.158264 -78.580841 -124.34692 0 0 0
-77.750671 -79.561813 -123.92772 0 0 0
-78.157013 -79.487503 -124.38362 0 0 0
-78.1716 -79.187798 -124.69569 0 0 0
-77.757324 -78.749542 -124.79036 0 0 0
-77.330704 -78.447182 -124.65369 0 0 0
-78.187553 -79.729156 -124.10602 0 0 0
-78.754074 -79.796585 -124.3912 0 0 0
-78.811722 -79.522446 -124.72062 0 0 0
-78.758369 -79.128395 -125.04152 0 0 0
-78.179901 -78.913322 -124.93115 0 0 0
-78.63755 -80.053467 -123.9786 0 0 0
-78.956085 -80.198517 -123.94713 0 0 0
-79.237549 -80.044281 -124.27782 0 0 0
-79.237549 -79.743118 -124.63701 0 0 0
-79.237549 -79.397774 -124.97411 0 0 0
-79.347595 -80.415161 -123.78326 0 0 0
-79.537552 -80.151291 -124.22686 0 0 0
-79.687798 -79.794144 -124.69093 0 0 0
-79.696777 -79.492821 -124.99087 0 0 0
-79.687553 -79.031097 -125.35511 0 0 0
-79.10923 -78.927948 -125.31381 0 0 0
-79.38755 -80.580505 -123.50602 0 0 0
-79.987549 -80.370758 -123.98647 0 0 0
-79.987549 -80.098541 -124.38553 0 0 0
-80.13755 -79.838684 -124.70602 0 0 0
-80.13755 -79.533607 -125.00602 0 0 0
-79.408913 -80.718018 -123.21767 0 0 0
-79.837555 -80.677734 -123.44244 0 0 0
-80.287552 -80.681442 -123.4476 0 0 0
-80.587555 -80.444672 -123.86895 0 0 0
-80.587555 -80.300407 -124.10602 0 0 0
-80.587555 -80.098343 -124.3862 0 0 0
-79.065033 -80.756454 -122.91408 0 0 0
-79.537552 -80.896072 -122.75602 0 0 0
-79.987549 -80.832954 -123.05602 0 0 0
-80.437553 -80.829132 -123.05602 0 0 0
-80.885796 -80.660934 -123.36827 0 0 0
-79.087555 -80.850067 -122.60602 0 0 0
-79.38755 -80.98085 -122.30602 0 0 0
-79.987549 -81.016754 -122.4205 0 0 0
-80.437553 -81.015015 -122.41718 0 0 0
-80.901741 -80.987099 -122.36267 0 0 0
-80.962555 -80.870102 -122.75602 0 0 0
-79.687553 -81.064453 -122.00602 0 0 0
-80.287552 -81.108223 -121.85602 0 0 0
-80.88755 -81.069092 -122.00602 0 0 0
-81.327393 -81.004593 -121.88673 0 0 0
-81.337555 -80.898956 -122.45602 0 0 0
-81.337555 -80.72258 -123.01926 0 0 0
-79.687553 -81.083618 -121.70602 0 0 0
-79.687553 -81.084274 -121.25602 0 0 0
-80.13755 -81.12561 -121.25602 0 0 0
-80.437553 -81.134872 -121.25602 0 0 0
-80.737549 -81.119431 -121.25602 0 0 0
-80.737549 -81.117447 -121.70602 0 0 0
-79.987549 -81.091179 -120.80602 0 0 0
-80.587555 -81.078629 -120.80602 0 0 0
-81.153603 -81.028015 -121.03102 0 0 0
-81.037552 -81.085159 -121.55602 0 0 0
-79.723305 -81.010391 -120.50083 0 0 0
-80.13755 -81.016457 -120.39317 0 0 0
-80.587555 -80.979141 -120.34352 0 0 0
-81.187553 -80.956497 -120.56519 0 0 0
-81.862549 -80.814995 -120.88101 0 0 0
-81.487549 -80.960518 -121.23833 0 0 0
-79.537552 -80.897774 -120.20602 0 0 0
-79.837555 -80.888077 -120.05602 0 0 0
-80.287552 -80.852524 -119.90602 0 0 0
-80.88755 -80.84613 -119.98102 0 0 0
-81.337555 -80.840256 -120.20602 0 0 0
-81.795578 -80.771225 -120.50602 0 0 0
-79.993484 -80.641205 -119.44437 0 0 0
-80.437553 -80.64357 -119.43091 0 0 0
-80.912735 -80.696564 -119.6302 0 0 0
-81.351822 -80.643036 -119.75602 0 0 0
-79.687553 -80.389526 -119.02652 0 0 0
-80.314346 -80.404968 -119.00587 0 0 0
-80.88755 -80.447289 -119.18379 0 0 0
-81.356644 -80.329865 -119.14682 0 0 0
-81.775986 -80.422653 -119.58636 0 0 0
-79.348236 -80.100098 -118.70753 0 0 0
-79.987549 -80.151482 -118.65009 0 0 0
-80.437553 -80.117271 -118.60109 0 0 0
-80.737549 -80.141899 -118.66068 0 0 0
-81.20446 -80.093033 -118.72232 0 0 0
-79.049377 -79.80146 -118.41424 0 0 0
-79.687553 -79.818214 -118.28278 0 0 0
-80.287552 -79.772156 -118.18978 0 0 0
-80.88755 -79.8629 -118.3428 0 0 0
-81.562546 -79.808838 -118.51634 0 0 0
-81.822815 -80.096992 -119.02184 0 0 0
-79.109978 -79.516235 -118.0881 0 0 0
-79.537552 -79.578522 -118.03148 0 0 0
-79.837555 -79.44696 -117.86246 0 0 0
-80.287552 -79.45314 -117.85878 0 0 0
-80.88755 -79.576233 -118.03652 0 0 0
-78.862549 -78.969208 -117.74792 0 0 0
-79.187447 -79.219849 -117.79709 0 0 0
-79.537552 -79.27684 -117.75365 0 0 0
-79.987549 -79.208351 -117.65814 0 0 0
-80.587555 -79.246994 -117.69516 0 0 0
-78.762337 -78.615799 -117.54283 0 0 0
-79.237549 -78.736237 -117.45682 0 0 0
-79.687553 -78.922928 -117.49507 0 0 0
-80.287552 -78.962997 -117.46881 0 0 0
-78.150803 -78.608345 -117.82854 0 0 0
-78.503731 -78.314079 -117.49418 0 0 0
-78.937553 -78.30835 -117.30062 0 0 0
-79.237549 -78.143768 -117.15086 0 0 0
-79.662048 -78.473969 -117.24792 0 0 0
-77.852737 -78.327736 -117.84782 0 0 0
-78.065369 -77.887589 -117.51926 0 0 0
-78.487396 -77.858582 -117.31949 0 0 0
-78.893433 -78.031609 -117.19737 0 0 0
-79.087555 -77.708351 -117.05026 0 0 0
-79.687553 -78.008347 -117.03496 0 0 0
-77.41996 -78.158348 -118.08051 0 0 0
-77.705017 -78.034561 -117.79418 0 0 0
-77.737549 -77.708351 -117.64294 0 0 0
-77.916489 -77.333344 -117.46051 0 0 0
-77.115112 -78.223953 -118.43985 0 0 0
-77.13755 -78.008347 -118.29025 0 0 0
-77.129379 -77.525055 -118.10023 0 0 0
-77.459038 -77.571487 -117.82201 0 0 0
-76.911217 -77.708351 -118.40602 0 0 0
-77.082245 -76.958344 -118.05055 0 0 0
-77.395775 -77.108345 -117.77507 0 0 0
-78.787552 -77.258347 -117.05139 0 0 0
-79.266777 -77.269119 -116.91472 0 0 0
-79.537552 -77.28775 -116.86292 0 0 0
-79.537552 -77.708351 -116.94927 0 0 0
-78.367401 -77.273575 -117.21638 0 0 0
-78.461411 -76.80835 -117.10638 0 0 0
-79.104774 -76.80835 -116.87852 0 0 0
-79.687553 -76.80835 -116.77177 0 0 0
-79.987549 -77.258347 -116.81618 0 0 0
-80.00782 -77.702957 -116.90195 0 0 0
-78.037552 -76.658348 -117.30867 0 0 0
-78.158081 -76.358353 -117.24419 0 0 0
-78.89299 -76.358353 -116.94414 0 0 0
-79.38755 -76.508347 -116.8009 0 0 0
-79.837555 -76.508347 -116.73692 0 0 0
-80.550049 -76.958344 -116.77173 0 0 0
-77.743515 -76.739853 -117.49629 0 0 0
-77.712509 -76.208351 -117.4909 0 0 0
-78.037552 -75.758347 -117.36395 0 0 0
-78.46656 -76.208351 -117.12003 0 0 0
-78.937553 -75.758347 -116.99407 0 0 0
-79.212227 -76.05835 -116.8685 0 0 0
-77.408813 -76.658348 -117.72293 0 0 0
-77.323196 -76.208351 -117.7767 0 0 0
-77.420502 -75.674606 -117.79212 0 0 0
-77.755569 -75.760468 -117.51827 0 0 0
-77.212006 -76.508347 -117.87808 0 0 0
-76.911545 -76.508347 -118.19507 0 0 0
-76.817383 -76.208351 -118.29788 0 0 0
-77.082214 -75.908348 -118.05 0 0 0
-77.247963 -75.008347 -118.13579 0 0 0
-77.708282 -75.158348 -117.69386 0 0 0
-76.542908 -76.283524 -118.70602 0 0 0
-76.636276 -75.68335 -118.70602 0 0 0
-76.856033 -75.544701 -118.424 0 0 0
-76.903885 -75.008347 -118.48158 0 0 0
-77.122971 -74.661011 -118.39017 0 0 0
-77.596512 -74.715477 -117.96227 0 0 0
-76.631027 -75.001549 -118.854 0 0 0
-76.302643 -74.973694 -119.44879 0 0 0
-76.571671 -74.708351 -119.05917 0 0 0
-76.837555 -74.693497 -118.70602 0 0 0
-76.945183 -74.393295 -118.79456 0 0 0
-77.356506 -74.408348 -118.32888 0 0 0
-76.003387 -74.708351 -120.21182 0 0 0
-76.33696 -74.708351 -119.45602 0 0 0
-76.461914 -74.424629 -119.45602 0 0 0
-75.914452 -74.65519 -120.50602 0 0 0
-76.184799 -74.416901 -120.065 0 0 0
-76.496323 -74.126556 -119.76871 0 0 0
-76.817543 -74.080002 -119.24278 0 0 0
-77.063713 -73.969543 -119.02968 0 0 0
-75.948807 -74.437149 -120.98251 0 0 0
-76.02758 -74.408348 -120.50602 0 0 0
-76.251602 -74.13195 -120.32883 0 0 0
-76.720184 -73.835312 -119.75602 0 0 0
-77.097412 -73.588936 -119.44074 0 0 0
-75.937553 -74.375008 -121.40602 0 0 0
-76.191467 -73.985611 -121.18102 0 0 0
-76.272423 -73.92453 -120.80602 0 0 0
-76.503601 -73.691956 -120.50602 0 0 0
-76.68222 -73.651642 -120.12871 0 0 0
-75.930511 -74.413559 -121.8298 0 0 0
-76.142609 -74.045395 -121.85602 0 0 0
-76.264702 -73.847343 -121.55602 0 0 0
-76.523499 -73.493942 -121.55602 0 0 0
-76.545059 -73.519379 -120.93951 0 0 0
-76.265854 -73.921539 -122.30602 0 0 0
-76.52597 -73.513504 -122.13367 0 0 0
-76.144989 -74.258347 -122.62773 0 0 0
-76.496201 -73.689247 -122.60602 0 0 0
-76.842232 -73.222511 -122.48757 0 0 0
-76.801971 -73.169777 -122.00602 0 0 0
-76.798294 -73.164452 -121.55602 0 0 0
-76.824875 -73.194328 -120.94266 0 0 0
-76.219833 -74.371864 -123.03906 0 0 0
-76.365456 -74.108345 -123.05602 0 0 0
-76.551468 -73.839081 -123.07809 0 0 0
-76.819016 -73.479004 -123.04129 0 0 0
-77.102478 -73.172653 -123.05849 0 0 0
-77.139755 -72.918793 -122.49388 0 0 0
-76.157135 -74.795708 -123.34497 0 0 0
-76.504791 -74.350433 -123.64228 0 0 0
-76.861771 -73.861603 -123.68376 0 0 0
-77.122803 -73.492355 -123.62202 0 0 0
-77.417938 -73.200562 -123.6409 0 0 0
-77.409912 -72.880127 -123.04777 0 0 0
-76.250572 -75.134842 -123.78165 0 0 0
-76.493233 -74.708351 -123.93228 0 0 0
-76.916817 -74.380653 -124.26774 0 0 0
-77.064621 -73.970222 -124.08239 0 0 0
-77.602158 -73.382904 -124.09865 0 0 0
-77.726936 -72.962509 -123.68321 0 0 0
-76.501877 -75.274567 -124.25443 0 0 0
-76.767357 -74.858353 -124.40602 0 0 0
-77.117455 -74.708351 -124.70602 0 0 0
-77.397591 -74.27507 -124.68811 0 0 0
-77.306152 -73.981964 -124.3661 0 0 0
-76.57357 -75.908348 -124.5925 0 0 0
-76.80661 -75.458344 -124.7345 0 0 0
-76.894394 -75.008347 -124.64352 0 0 0
-77.321457 -75.008347 -125.04257 0 0 0
-77.577927 -74.547554 -125.02049 0 0 0
-76.584457 -76.358353 -124.6515 0 0 0
-76.896919 -75.908348 -124.95119 0 0 0
-77.108185 -75.453354 -125.02953 0 0 0
-76.593033 -76.80835 -124.63939 0 0 0
-77.015099 -76.80835 -125.06291 0 0 0
-76.878738 -76.358353 -124.96671 0 0 0
-77.250252 -76.358353 -125.27395 0 0 0
-77.262085 -75.908348 -125.24896 0 0 0
-77.454361 -75.443611 -125.2905 0 0 0
-76.761696 -77.278061 -124.72008 0 0 0
-77.030762 -77.108345 -125.02116 0 0 0
-77.372467 -76.80835 -125.35257 0 0 0
-76.868675 -77.708351 -124.67305 0 0 0
-77.152321 -77.582047 -124.98602 0 0 0
-77.429329 -77.227142 -125.31195 0 0 0
-77.920364 -77.108345 -125.63141 0 0 0
-77.737549 -76.676414 -125.59485 0 0 0
-77.119675 -78.035355 -124.73869 0 0 0
-77.431259 -77.867538 -125.08286 0 0 0
-77.895065 -77.951431 -125.359 0 0 0
-77.883247 -77.491592 -125.51432 0 0 0
-77.635223 -78.341949 -124.98804 0 0 0
-78.204315 -78.300606 -125.35559 0 0 0
-78.501221 -77.829391 -125.6929 0 0 0
-78.30162 -77.55835 -125.70296 0 0 0
-77.971573 -78.635696 -125.02524 0 0 0
-78.50824 -78.616234 -125.30135 0 0 0
-78.778145 -78.145515 -125.65544 0 0 0
-78.97139 -77.694305 -125.90123 0 0 0
-78.795013 -77.389252 -125.93985 0 0 0
-78.531464 -77.108345 -125.9128 0 0 0
-79.087555 -78.585678 -125.52734 0 0 0
-79.237549 -78.121391 -125.79166 0 0 0
-79.38755 -77.708351 -125.99149 0 0 0
-79.38755 -77.258347 -126.09851 0 0 0
-78.937553 -76.958344 -126.06413 0 0 0
-79.687553 -78.633522 -125.6162 0 0 0
-79.699318 -78.165771 -125.8456 0 0 0
-79.837555 -77.55835 -126.08345 0 0 0
-79.837555 -76.91272 -126.20674 0 0 0
-79.393997 -76.803711 -126.18048 0 0 0
-80.13755 -78.780609 -125.554 0 0 0
-80.212555 -78.177933 -125.86089 0 0 0
-80.13755 -77.708351 -126.04224 0 0 0
-80.287552 -77.18335 -126.15269 0 0 0
-80.287552 -79.184311 -125.28878 0 0 0
-80.437553 -78.776527 -125.54929 0 0 0
-80.737549 -78.30835 -125.75108 0 0 0
-80.604362 -77.986275 -125.89634 0 0 0
-80.587555 -77.55835 -126.02872 0 0 0
-80.556946 -79.517426 -125.00174 0 0 0
-80.737549 -79.15966 -125.27223 0 0 0
-80.730865 -78.758347 -125.51842 0 0 0
-81.184158 -78.439178 -125.57309 0 0 0
-81.187553 -78.008347 -125.77948 0 0 0
-81.051376 -77.567612 -125.95692 0 0 0
-80.57457 -79.822128 -124.70386 0 0 0
-81.037552 -79.333435 -125.0627 0 0 0
-81.169464 -78.918732 -125.30576 0 0 0
-81.813339 -78.616058 -125.27068 0 0 0
-81.63755 -78.30835 -125.50718 0 0 0
-81.663712 -77.8694 -125.689 0 0 0
-81.037552 -79.77346 -124.66916 0 0 0
-81.474007 -79.538513 -124.72623 0 0 0
-81.651695 -79.054443 -125.03816 0 0 0
-82.27066 -78.772842 -124.95162 0 0 0
-82.058792 -78.333893 -125.31991 0 0 0
-81.037552 -80.155083 -124.22823 0 0 0
-81.474106 -79.83535 -124.42827 0 0 0
-82.058731 -79.526276 -124.42473 0 0 0
-82.055679 -79.224327 -124.71958 0 0 0
-81.215858 -80.437195 -123.72102 0 0 0
-81.519714 -80.140778 -124.02695 0 0 0
-82.093689 -79.908966 -123.95232 0 0 0
-82.69883 -79.364906 -124.11993 0 0 0
-82.526299 -79.05835 -124.55602 0 0 0
-81.615646 -80.633286 -123.04604 0 0 0
-81.667236 -80.420197 -123.50602 0 0 0
-82.106026 -80.201797 -123.50602 0 0 0
-82.518265 -79.876266 -123.64734 0 0 0
-81.63755 -80.81691 -122.45602 0 0 0
-81.920822 -80.70195 -122.49146 0 0 0
-81.948074 -80.493164 -123.0764 0 0 0
-82.38755 -80.209656 -123.20602 0 0 0
-82.859818 -79.8265 -123.32884 0 0 0
-83.001701 -79.36322 -123.81599 0 0 0
-81.63755 -80.895546 -122.00602 0 0 0
-82.189133 -80.708618 -121.86044 0 0 0
-82.390656 -80.487869 -122.43613 0 0 0
-82.396568 -80.331604 -122.91908 0 0 0
-82.85051 -80.117836 -122.72478 0 0 0
-81.787552 -80.864502 -121.55602 0 0 0
-82.237549 -80.711815 -121.34717 0 0 0
-82.537552 -80.527695 -121.85602 0 0 0
-82.770615 -80.363411 -122.00602 0 0 0
-82.96344 -80.164566 -122.30602 0 0 0
-82.204926 -80.681808 -120.95602 0 0 0
-82.655869 -80.445587 -121.10602 0 0 0
-82.537552 -80.558014 -121.40602 0 0 0
-82.797882 -80.38031 -121.55602 0 0 0
-83.135895 -80.106552 -121.55602 0 0 0
-83.301819 -79.960411 -121.85602 0 0 0
-82.237549 -80.54332 -120.35602 0 0 0
-82.488358 -80.3806 -120.20602 0 0 0
-82.95163 -80.148972 -120.58102 0 0 0
-83.120804 -80.089279 -120.95602 0 0 0
-82.237549 -80.320038 -119.75602 0 0 0
-82.581741 -80.121498 -119.76514 0 0 0
-82.85891 -80.108345 -120.16293 0 0 0
-83.167755 -79.826218 -120.07092 0 0 0
-83.420708 -79.792313 -120.65602 0 0 0
-83.466042 -79.832642 -121.25602 0 0 0
-81.787552 -80.283417 -119.30602 0 0 0
-82.212227 -80.094299 -119.30602 0 0 0
-82.423218 -79.792686 -119.0532 0 0 0
-82.853333 -79.751022 -119.44527 0 0 0
-81.974442 -79.66674 -118.54688 0 0 0
-82.379242 -79.534218 -118.66678 0 0 0
-82.813705 -79.498596 -119.01863 0 0 0
-83.155457 -79.525513 -119.48604 0 0 0
-83.464493 -79.527924 -120.05602 0 0 0
-81.508423 -79.482918 -118.13107 0 0 0
-82.112717 -79.182083 -118.127 0 0 0
-82.38755 -79.298485 -118.40602 0 0 0
-82.985497 -79.208351 -118.86224 0 0 0
-83.452057 -79.224106 -119.48852 0 0 0
-81.184036 -79.230179 -117.78842 0 0 0
-81.63755 -79.099068 -117.83267 0 0 0
-81.936111 -78.757423 -117.70694 0 0 0
-82.383095 -78.788132 -117.98557 0 0 0
-82.842529 -78.913322 -118.40602 0 0 0
-81.187553 -78.868256 -117.52824 0 0 0
-81.679832 -78.621078 -117.49794 0 0 0
-82.106148 -78.289177 -117.5086 0 0 0
-82.703796 -78.176361 -117.80051 0 0 0
-82.862625 -78.444153 -118.0937 0 0 0
-83.13755 -78.745277 -118.5578 0 0 0
-80.737549 -78.942642 -117.48276 0 0 0
-81.198067 -78.446136 -117.29021 0 0 0
-81.654366 -78.158348 -117.26069 0 0 0
-81.956696 -77.869415 -117.24673 0 0 0
-82.424431 -78.008347 -117.53043 0 0 0
-80.737549 -78.495438 -117.22729 0 0 0
-80.88755 -78.008347 -117.04804 0 0 0
-81.337555 -77.858353 -117.05351 0 0 0
-81.63755 -77.708351 -117.06391 0 0 0
-81.787552 -77.408348 -117.03377 0 0 0
-82.237549 -77.552353 -117.25972 0 0 0
-80.437553 -78.432419 -117.17574 0 0 0
-80.287552 -78.008347 -116.9985 0 0 0
-80.456535 -77.55835 -116.87015 0 0 0
-80.831299 -77.482941 -116.88367 0 0 0
-81.337555 -77.394119 -116.90602 0 0 0
-80.13755 -78.430252 -117.17685 0 0 0
-81.037552 -76.958344 -116.7742 0 0 0
-83.764191 -79.538208 -121.55602 0 0 0
-83.730057 -79.495819 -122.18172 0 0 0
-83.42617 -79.794403 -122.17074 0 0 0
-83.196587 -79.823425 -122.76125 0 0 0
-83.748444 -79.520309 -120.95886 0 0 0
-84.037552 -79.208328 -121.29636 0 0 0
-84.038589 -79.188354 -121.86951 0 0 0
-83.995354 -79.151939 -122.30602 0 0 0
-83.556496 -79.467407 -122.77109 0 0 0
-83.170578 -79.546173 -123.34433 0 0 0
-83.695915 -79.460205 -120.50602 0 0 0
-83.98925 -79.147552 -120.65602 0 0 0
-84.29361 -78.789429 -121.03102 0 0 0
-84.364807 -78.724625 -121.40602 0 0 0
-84.302429 -78.790039 -121.85602 0 0 0
-83.75029 -79.223312 -120.08273 0 0 0
-84.093781 -78.908348 -120.35602 0 0 0
-84.346825 -78.61496 -120.68079 0 0 0
-84.496628 -78.30835 -120.65602 0 0 0
-84.654694 -78.120575 -121.18102 0 0 0
-84.714836 -78.008347 -121.70602 0 0 0
-83.751656 -78.943886 -119.57986 0 0 0
-83.986588 -78.8358 -119.90602 0 0 0
-84.301666 -78.487022 -120.20602 0 0 0
-84.577667 -77.848427 -120.2173 0 0 0
-84.630646 -77.978477 -120.63292 0 0 0
-83.5224 -78.895966 -119.16261 0 0 0
-83.747864 -78.573959 -119.1657 0 0 0
-84.121475 -78.453857 -119.69167 0 0 0
-84.350922 -78.140068 -119.87393 0 0 0
-83.501266 -78.438164 -118.71431 0 0 0
-83.762497 -77.858353 -118.63636 0 0 0
-84.044449 -77.820816 -118.99606 0 0 0
-84.09053 -78.149612 -119.3222 0 0 0
-84.326767 -77.588486 -119.32816 0 0 0
-84.475105 -77.708351 -119.75602 0 0 0
-83.278137 -78.180756 -118.29954 0 0 0
-83.422951 -77.57251 -118.11597 0 0 0
-83.763199 -77.258347 -118.36465 0 0 0
-84.113525 -77.346161 -118.86473 0 0 0
-83.109787 -77.578156 -117.82938 0 0 0
-83.194794 -77.108345 -117.76114 0 0 0
-83.508606 -77.108345 -118.03631 0 0 0
-83.687141 -76.80835 -118.15781 0 0 0
-83.993073 -76.80835 -118.52515 0 0 0
-84.368553 -77.108345 -119.18575 0 0 0
-82.692772 -77.642395 -117.55592 0 0 0
-82.811775 -77.263611 -117.52434 0 0 0
-82.897667 -76.658348 -117.4649 0 0 0
-83.296227 -76.658348 -117.78389 0 0 0
-83.704742 -76.358353 -118.13958 0 0 0
-84.074692 -76.508347 -118.58707 0 0 0
-82.422935 -77.108345 -117.23384 0 0 0
-82.365761 -76.80835 -117.16755 0 0 0
-82.366043 -76.358353 -117.16219 0 0 0
-83.025131 -76.208351 -117.53507 0 0 0
-83.403625 -76.208351 -117.8377 0 0 0
-81.787552 -77.081161 -116.96816 0 0 0
-81.77533 -76.658348 -116.91991 0 0 0
-81.749794 -76.208351 -116.89491 0 0 0
-81.806244 -75.908348 -116.93723 0 0 0
-82.357422 -75.908348 -117.17341 0 0 0
-81.337555 -76.958344 -116.81889 0 0 0
-81.337555 -76.358353 -116.77961 0 0 0
-81.337555 -75.758347 -116.83672 0 0 0
-81.937553 -75.458344 -117.05933 0 0 0
-82.342957 -75.608345 -117.19894 0 0 0
-82.86998 -75.737991 -117.48996 0 0 0
-81.037552 -76.508347 -116.73438 0 0 0
-80.88755 -76.05835 -116.74354 0 0 0
-80.88755 -75.608345 -116.78299 0 0 0
-81.180283 -75.325378 -116.88133 0 0 0
-80.51255 -76.508347 -116.72655 0 0 0
-80.362549 -76.05835 -116.7327 0 0 0
-80.437553 -75.458344 -116.78972 0 0 0
-80.737549 -75.30835 -116.81886 0 0 0
-80.901619 -75.030746 -116.91396 0 0 0
-81.487549 -75.008347 -117.03932 0 0 0
-79.912552 -76.05835 -116.75874 0 0 0
-80.062546 -75.458344 -116.82962 0 0 0
-80.160767 -74.858353 -116.96019 0 0 0
-80.437553 -74.83992 -116.95279 0 0 0
-80.88755 -74.708351 -117.02689 0 0 0
-79.537552 -76.05835 -116.80591 0 0 0
-79.453842 -75.530365 -116.91072 0 0 0
-79.762558 -74.858353 -117.02869 0 0 0
-80.13755 -74.292526 -117.18532 0 0 0
-80.437553 -74.290268 -117.18166 0 0 0
-79.237549 -75.158348 -117.04803 0 0 0
-79.39975 -74.560089 -117.21531 0 0 0
-79.837555 -74.238663 -117.25145 0 0 0
-80.287552 -73.763634 -117.47697 0 0 0
-80.88755 -74.232788 -117.24532 0 0 0
-78.787552 -75.222481 -117.16428 0 0 0
-78.775375 -74.777313 -117.30711 0 0 0
-78.784561 -74.408348 -117.45028 0 0 0
-79.366898 -74.098206 -117.43251 0 0 0
-79.797073 -73.797958 -117.50602 0 0 0
-78.500061 -75.754578 -117.16087 0 0 0
-78.262558 -75.158348 -117.3968 0 0 0
-78.187553 -74.704346 -117.58125 0 0 0
-78.347549 -74.258347 -117.72365 0 0 0
-78.787552 -74.12648 -117.59653 0 0 0
-77.993507 -75.173187 -117.51544 0 0 0
-78.042404 -74.263641 -117.90498 0 0 0
-78.152382 -73.831085 -118.12473 0 0 0
-78.748871 -73.819916 -117.81404 0 0 0
-84.254959 -78.758347 -122.32016 0 0 0
-84.033112 -78.925049 -122.71474 0 0 0
-83.797768 -79.211113 -122.75602 0 0 0
-83.477837 -79.250534 -123.33551 0 0 0
-84.570038 -78.209061 -122.15602 0 0 0
-84.371231 -78.430984 -122.60602 0 0 0
-84.069275 -78.659088 -123.04361 0 0 0
-83.74498 -78.942497 -123.32722 0 0 0
-83.437553 -78.780869 -123.95602 0 0 0
-83.15419 -78.943192 -124.12303 0 0 0
-84.784454 -77.708351 -122.00602 0 0 0
-84.641441 -77.858688 -122.45886 0 0 0
-84.402649 -78.023972 -123.05602 0 0 0
-84.273781 -78.308647 -123.05602 0 0 0
-83.919525 -78.523087 -123.50602 0 0 0
-84.84935 -77.55835 -121.70602 0 0 0
-84.852264 -77.258347 -122.23102 0 0 0
-84.756882 -77.408348 -122.60602 0 0 0
-84.551308 -77.567657 -123.0598 0 0 0
-84.371086 -77.54454 -123.50602 0 0 0
-84.123222 -78.008347 -123.65181 0 0 0
-84.847397 -77.55835 -121.40602 0 0 0
-84.94072 -77.117485 -121.27092 0 0 0
-84.936783 -77.108345 -121.81012 0 0 0
-84.963371 -76.845161 -121.86879 0 0 0
-84.916336 -76.658348 -122.2804 0 0 0
-84.828842 -76.958344 -122.60602 0 0 0
-84.808792 -77.55835 -120.95602 0 0 0
-84.868332 -77.108345 -120.65602 0 0 0
-84.956154 -76.800468 -120.96027 0 0 0
-84.992134 -76.80835 -121.40602 0 0 0
-84.741623 -77.55835 -120.50602 0 0 0
-84.744812 -77.258347 -120.20602 0 0 0
-84.853638 -76.658348 -120.35602 0 0 0
-84.945869 -76.358353 -120.75648 0 0 0
-84.987518 -76.358353 -121.10602 0 0 0
-84.998795 -76.358353 -121.55602 0 0 0
-84.605545 -77.248001 -119.78218 0 0 0
-84.738319 -76.658348 -119.90602 0 0 0
-84.751137 -76.208351 -119.90602 0 0 0
-84.867157 -76.208351 -120.35602 0 0 0
-84.908592 -75.918289 -120.66241 0 0 0
-84.412064 -76.663895 -119.16767 0 0 0
-84.630325 -76.658348 -119.62349 0 0 0
-84.572502 -76.208351 -119.4562 0 0 0
-84.662529 -75.758347 -119.78351 0 0 0
-84.79689 -75.758347 -120.20602 0 0 0
-84.353073 -76.208351 -119.00602 0 0 0
-84.158981 -76.05835 -118.70602 0 0 0
-84.327065 -75.764755 -119.0256 0 0 0
-84.470398 -75.758347 -119.30602 0 0 0
-84.497406 -75.158348 -119.60602 0 0 0
-84.686234 -75.301979 -120.05602 0 0 0
-84.848053 -75.458344 -120.65602 0 0 0
-83.986755 -76.05835 -118.47073 0 0 0
-83.975357 -75.608345 -118.53289 0 0 0
-84.31884 -75.175766 -119.22687 0 0 0
-84.289864 -74.55835 -119.60602 0 0 0
-84.56456 -74.853348 -120.04604 0 0 0
-84.756439 -75.008347 -120.65602 0 0 0
-83.687073 -75.758347 -118.1595 0 0 0
-83.754089 -75.179115 -118.39474 0 0 0
-84.011932 -75.167458 -118.74666 0 0 0
-84.08902 -74.863815 -119.00945 0 0 0
-84.126076 -74.547852 -119.28829 0 0 0
-83.375687 -75.758347 -117.86034 0 0 0
-83.461945 -75.165245 -118.08569 0 0 0
-83.464569 -74.567894 -118.38507 0 0 0
-83.744423 -74.572052 -118.68659 0 0 0
-83.818069 -74.261673 -119.00893 0 0 0
-83.986801 -74.099365 -119.43542 0 0 0
-83.13755 -75.758347 -117.66257 0 0 0
-82.98159 -75.072159 -117.73068 0 0 0
-83.157654 -74.585312 -118.08865 0 0 0
-83.151962 -74.071518 -118.39246 0 0 0
-83.451248 -73.932411 -118.82812 0 0 0
-82.67244 -75.30835 -117.44359 0 0 0
-82.562386 -74.896667 -117.50868 0 0 0
-82.852608 -74.547287 -117.8567 0 0 0
-82.689919 -73.955727 -118.10901 0 0 0
-82.879166 -73.624649 -118.5343 0 0 0
-83.195358 -73.775764 -118.67747 0 0 0
-82.230255 -75.158348 -117.25622 0 0 0
-82.127838 -74.465324 -117.49595 0 0 0
-82.502861 -74.22715 -117.81518 0 0 0
-82.108932 -73.80835 -117.87187 0 0 0
-82.058533 -73.490585 -118.0916 0 0 0
-82.559578 -73.349564 -118.54753 0 0 0
-81.948395 -74.846909 -117.25579 0 0 0
-81.651382 -74.545761 -117.25965 0 0 0
-81.810455 -74.101326 -117.54467 0 0 0
-81.63755 -73.685349 -117.757 0 0 0
-81.530869 -73.212776 -118.10991 0 0 0
-82.072144 -73.179672 -118.37811 0 0 0
-81.311661 -74.55835 -117.15751 0 0 0
-81.337555 -73.984558 -117.46258 0 0 0
-81.194244 -73.485207 -117.78781 0 0 0
-80.88755 -73.175369 -117.98353 0 0 0
-81.531067 -72.912346 -118.41025 0 0 0
-82.06192 -72.890884 -118.68511 0 0 0
-80.88755 -73.795227 -117.50204 0 0 0
-80.737549 -73.427132 -117.7429 0 0 0
-80.437553 -73.383713 -117.74963 0 0 0
-80.587555 -72.951172 -118.15042 0 0 0
-81.037552 -72.850136 -118.34045 0 0 0
-80.13755 -73.386978 -117.75783 0 0 0
-80.13755 -72.948441 -118.14678 0 0 0
-80.437553 -72.626068 -118.5126 0 0 0
-80.962555 -72.621643 -118.60696 0 0 0
-81.63755 -72.648705 -118.75986 0 0 0
-79.837555 -73.326294 -117.85332 0 0 0
-79.687553 -72.860161 -118.32147 0 0 0
-80.13755 -72.565422 -118.58587 0 0 0
-80.512558 -72.198563 -119.15602 0 0 0
-80.900513 -72.315331 -119.01894 0 0 0
-81.262558 -72.270584 -119.1916 0 0 0
-79.38755 -73.82756 -117.58725 0 0 0
-79.357018 -73.521149 -117.81567 0 0 0
-79.396225 -73.185165 -118.08447 0 0 0
-79.092911 -72.970856 -118.40602 0 0 0
-79.419319 -72.60157 -118.69741 0 0 0
-79.837555 -72.554382 -118.63557 0 0 0
-78.784698 -73.411026 -118.1197 0 0 0
-78.469421 -73.309235 -118.37079 0 0 0
-78.792114 -72.876389 -118.66651 0 0 0
-78.901894 -72.576447 -118.98463 0 0 0
-79.237549 -72.351334 -119.12827 0 0 0
-79.674896 -72.316734 -119.02238 0 0 0
-78.059692 -73.527924 -118.44368 0 0 0
-78.214333 -73.186523 -118.68064 0 0 0
-78.288223 -72.894028 -118.98544 0 0 0
-78.498901 -72.585037 -119.25346 0 0 0
-78.961395 -72.250641 -119.4637 0 0 0
-77.608902 -73.992317 -118.43557 0 0 0
-77.603943 -73.524261 -118.89122 0 0 0
-77.880127 -73.036804 -119.1927 0 0 0
-78.071732 -72.608345 -119.60602 0 0 0
-78.487549 -72.376518 -119.60602 0 0 0
-77.72699 -74.278885 -118.11566 0 0 0
-77.593018 -73.064072 -119.49776 0 0 0
-77.820801 -72.583542 -120.03222 0 0 0
-80.88755 -72.000961 -119.59543 0 0 0
-81.337555 -71.988922 -119.78925 0 0 0
-81.706894 -72.107964 -119.76098 0 0 0
-81.660065 -72.391411 -119.15602 0 0 0
-82.113846 -72.547928 -119.20504 0 0 0
-80.287552 -71.985336 -119.55624 0 0 0
-80.88755 -71.875198 -119.90602 0 0 0
-81.412552 -71.831352 -120.35602 0 0 0
-81.775101 -71.965431 -120.22064 0 0 0
-80.13755 -72.194443 -119.15602 0 0 0
-79.687553 -72.15451 -119.30602 0 0 0
-79.631729 -71.953835 -119.75955 0 0 0
-79.987549 -71.85743 -119.90602 0 0 0
-80.437553 -71.843437 -119.90602 0 0 0
-80.940308 -71.738663 -120.39456 0 0 0
-79.237549 -72.042191 -119.73107 0 0 0
-79.106377 -71.918579 -120.13829 0 0 0
-79.687553 -71.784004 -120.20602 0 0 0
-80.287552 -71.696182 -120.38888 0 0 0
-80.88755 -71.643921 -120.80602 0 0 0
-81.492928 -71.745361 -120.97008 0 0 0
-78.664627 -72.091736 -120.07125 0 0 0
-79.087555 -71.816284 -120.50602 0 0 0
-79.708389 -71.70163 -120.49432 0 0 0
-79.687553 -71.630119 -120.88101 0 0 0
-80.287552 -71.60952 -120.80602 0 0 0
-78.337555 -72.249031 -120.05298 0 0 0
-78.456886 -72.039558 -120.50602 0 0 0
-78.63755 -71.868301 -120.95602 0 0 0
-79.07534 -71.73909 -120.96612 0 0 0
-79.107742 -71.686623 -121.40602 0 0 0
-79.687553 -71.587311 -121.33102 0 0 0
-78.052269 -72.3172 -120.32332 0 0 0
-77.87529 -72.286362 -120.95602 0 0 0
-78.313736 -72.01358 -120.98497 0 0 0
-78.164742 -72.056618 -121.40602 0 0 0
-78.63755 -71.821838 -121.55602 0 0 0
-77.617477 -72.566299 -120.50602 0 0 0
-77.418198 -72.613068 -120.97919 0 0 0
-77.399933 -72.577042 -121.55602 0 0 0
-77.746468 -72.312363 -121.55602 0 0 0
-77.414597 -72.88858 -120.07397 0 0 0
-77.150963 -72.924576 -120.64035 0 0 0
-77.096794 -72.86972 -121.25602 0 0 0
-77.090309 -72.86235 -121.85602 0 0 0
-77.424606 -72.60144 -122.15602 0 0 0
-77.902405 -72.257278 -122.15602 0 0 0
-77.10849 -73.186035 -120.06973 0 0 0
-76.872726 -73.246002 -120.50602 0 0 0
-83.820404 -73.811829 -119.45988 0 0 0
-84.037552 -73.814301 -119.91663 0 0 0
-84.271088 -74.240639 -119.90602 0 0 0
-83.307121 -73.345787 -119.28127 0 0 0
-83.721382 -73.527626 -119.66693 0 0 0
-83.850693 -73.483688 -120.05602 0 0 0
-84.148788 -73.773834 -120.35602 0 0 0
-84.347908 -74.09079 -120.3801 0 0 0
-84.460091 -74.408348 -120.20602 0 0 0
-83.168365 -73.477295 -118.9378 0 0 0
-82.861839 -73.189499 -118.96118 0 0 0
-82.837555 -72.906425 -119.30602 0 0 0
-83.157303 -72.891617 -119.78104 0 0 0
-83.467545 -73.187241 -119.77243 0 0 0
-82.38755 -72.823975 -119.01437 0 0 0
-82.551239 -72.649651 -119.42401 0 0 0
-82.837555 -72.664444 -119.75602 0 0 0
-82.959106 -72.563553 -120.20602 0 0 0
-83.429459 -72.91581 -120.31926 0 0 0
-83.722488 -73.218765 -120.33169 0 0 0
-82.12603 -72.333138 -119.58988 0 0 0
-82.345703 -72.315323 -119.86672 0 0 0
-82.654282 -72.301262 -120.43102 0 0 0
-83.1576 -72.588974 -120.65602 0 0 0
-83.501961 -72.846199 -120.95602 0 0 0
-83.790382 -73.148499 -120.95602 0 0 0
-82.2043 -72.091827 -120.35602 0 0 0
-82.667404 -72.232101 -120.80602 0 0 0
-82.844673 -72.306877 -121.25602 0 0 0
-83.19696 -72.562149 -121.25602 0 0 0
-83.518898 -72.830559 -121.40602 0 0 0
-81.937553 -71.915558 -120.65602 0 0 0
-82.237259 -72.008347 -120.80721 0 0 0
-82.395447 -72.059586 -121.25602 0 0 0
-82.685776 -72.221863 -121.69051 0 0 0
-83.190529 -72.566795 -121.70602 0 0 0
-83.494873 -72.852356 -121.85602 0 0 0
-81.937553 -71.858322 -121.25602 0 0 0
-81.445747 -71.7033 -121.40602 0 0 0
-81.46537 -71.726486 -121.85997 0 0 0
-81.937553 -71.87178 -121.85602 0 0 0
-82.24736 -72.002151 -121.85602 0 0 0
-82.660477 -72.267029 -122.15602 0 0 0
-83.145538 -72.597229 -122.13634 0 0 0
-81.037552 -71.624817 -121.25602 0 0 0
-81.037552 -71.629318 -121.85602 0 0 0
-81.164032 -71.749954 -122.47008 0 0 0
-81.787552 -71.899429 -122.38101 0 0 0
-82.209671 -72.081001 -122.45602 0 0 0
-80.662552 -71.585716 -121.25602 0 0 0
-80.587555 -71.58606 -121.85602 0 0 0
-80.587555 -71.632401 -122.30602 0 0 0
-80.576706 -71.749306 -122.76286 0 0 0
-81.187553 -71.87117 -122.90602 0 0 0
-81.799095 -72.025497 -122.85245 0 0 0
-80.287552 -71.575455 -121.10602 0 0 0
-80.13755 -71.554474 -121.55602 0 0 0
-79.987549 -71.577652 -121.93102 0 0 0
-79.987549 -71.623672 -122.30602 0 0 0
-80.13755 -71.710114 -122.70551 0 0 0
-79.537552 -71.613503 -121.85602 0 0 0
-79.537552 -71.660599 -122.30602 0 0 0
-79.67289 -71.758575 -122.75014 0 0 0
-79.987549 -71.880325 -123.20602 0 0 0
-80.587555 -71.887939 -123.20602 0 0 0
-79.120102 -71.696213 -121.85602 0 0 0
-79.095139 -71.757004 -122.28476 0 0 0
-79.087555 -71.82119 -122.60602 0 0 0
-79.087555 -71.905045 -122.90602 0 0 0
-79.537552 -71.974289 -123.33269 0 0 0
-80.174774 -72.012299 -123.50602 0 0 0
-78.63755 -71.867264 -122.15602 0 0 0
-78.660629 -71.98307 -122.74377 0 0 0
-78.977432 -72.102707 -123.34059 0 0 0
-79.237549 -72.048012 -123.37827 0 0 0
-79.537552 -72.269691 -123.92879 0 0 0
-79.837555 -72.249115 -123.93985 0 0 0
-78.238754 -72.011482 -121.70602 0 0 0
-78.321915 -72.003006 -122.1386 0 0 0
-78.377785 -72.110458 -122.75602 0 0 0
-78.62178 -72.228729 -123.36328 0 0 0
-79.112976 -72.299324 -123.82124 0 0 0
-78.048431 -72.315315 -122.79326 0 0 0
-78.337555 -72.367249 -123.37746 0 0 0
-78.63266 -72.51683 -123.95943 0 0 0
-79.087555 -72.500473 -124.14229 0 0 0
-77.614204 -72.558228 -122.60602 0 0 0
-77.817429 -72.578384 -123.08696 0 0 0
-78.180275 -72.615677 -123.6647 0 0 0
-78.198776 -72.882507 -124.07594 0 0 0
-78.574249 -72.888519 -124.42848 0 0 0
-78.198715 -73.134148 -124.38673 0 0 0
-78.294235 -73.358932 -124.68042 0 0 0
-78.63755 -73.162338 -124.74956 0 0 0
-78.937553 -72.829178 -124.53967 0 0 0
-79.366325 -72.620392 -124.39564 0 0 0
-77.757629 -73.670479 -124.54926 0 0 0
-78.172852 -73.836067 -124.99376 0 0 0
-78.607506 -73.496216 -125.01532 0 0 0
-78.937553 -73.239853 -124.97861 0 0 0
-79.186981 -73.208351 -125.01556 0 0 0
-79.372971 -72.890686 -124.72829 0 0 0
-77.928619 -74.108345 -125.02228 0 0 0
-78.516418 -73.988831 -125.29507 0 0 0
-78.937553 -73.625633 -125.26784 0 0 0
-79.363792 -73.520729 -125.29683 0 0 0
-79.687553 -73.166153 -125.04266 0 0 0
-77.951523 -74.580658 -125.29037 0 0 0
-78.347427 -74.58255 -125.51511 0 0 0
-78.647308 -74.276901 -125.5075 0 0 0
-79.125984 -74.102371 -125.61021 0 0 0
-79.38755 -73.837967 -125.52061 0 0 0
-79.987549 -73.489624 -125.33595 0 0 0
-77.721085 -74.957054 -125.31654 0 0 0
-78.15139 -75.008347 -125.58296 0 0 0
-78.781708 -74.93335 -125.83538 0 0 0
-78.787552 -74.55835 -125.70311 0 0 0
-79.237549 -74.408348 -125.78932 0 0 0
-79.687553 -74.108345 -125.7211 0 0 0
-77.879425 -75.293762 -125.52659 0 0 0
-78.376007 -75.458344 -125.82458 0 0 0
-78.63755 -75.483551 -125.93398 0 0 0
-79.087555 -75.30835 -126.02911 0 0 0
-79.249603 -74.866386 -125.94817 0 0 0
-77.787209 -75.758347 -125.576 0 0 0
-78.037552 -75.758347 -125.72024 0 0 0
-78.337555 -75.908348 -125.89063 0 0 0
-78.63755 -76.05835 -126.01608 0 0 0
-79.087555 -75.758347 -126.10391 0 0 0
-79.537552 -75.158348 -126.08365 0 0 0
-77.73391 -76.208351 -125.60602 0 0 0
-78.187454 -76.229134 -125.83946 0 0 0
-78.497437 -76.658348 -125.94838 0 0 0
-78.937553 -76.358353 -126.10902 0 0 0
-79.426491 -76.134605 -126.20434 0 0 0
-79.687553 -75.622086 -126.19221 0 0 0
-78.037552 -76.658348 -125.75352 0 0 0
-79.415863 -76.508347 -126.21326 0 0 0
-79.837555 -76.508347 -126.24696 0 0 0
-80.287552 -76.358353 -126.24663 0 0 0
-79.837555 -76.05835 -126.24451 0 0 0
-80.300003 -75.619301 -126.20605 0 0 0
-79.987549 -75.158348 -126.11607 0 0 0
-80.307434 -76.845367 -126.20952 0 0 0
-80.73317 -76.345428 -126.20989 0 0 0
-80.287552 -75.908348 -126.24204 0 0 0
-80.737549 -75.877968 -126.20862 0 0 0
-80.737549 -75.458344 -126.14609 0 0 0
-80.587555 -75.083344 -126.07996 0 0 0
-80.737549 -76.958344 -126.15503 0 0 0
-81.187553 -76.358353 -126.1216 0 0 0
-81.187553 -75.758347 -126.10542 0 0 0
-81.187553 -76.958344 -126.07045 0 0 0
-81.63755 -76.658348 -125.99213 0 0 0
-81.63755 -76.05835 -126.0095 0 0 0
-81.758972 -75.68335 -125.9339 0 0 0
-81.187553 -75.30835 -126.04308 0 0 0
-81.443184 -77.460144 -125.89363 0 0 0
-81.795197 -77.282059 -125.83034 0 0 0
-81.910027 -76.958344 -125.84808 0 0 0
-82.071785 -76.583344 -125.8267 0 0 0
-82.078384 -76.208351 -125.8421 0 0 0
-82.101006 -77.835701 -125.52612 0 0 0
-82.38755 -77.42495 -125.53079 0 0 0
-82.350494 -77.108345 -125.6253 0 0 0
-82.5243 -76.684807 -125.60198 0 0 0
-82.537552 -76.208351 -125.63439 0 0 0
-82.379997 -75.751213 -125.6727 0 0 0
-82.513474 -77.887756 -125.29251 0 0 0
-82.830322 -77.525848 -125.22972 0 0 0
-82.853592 -76.958344 -125.367 0 0 0
-83.009468 -76.658348 -125.29837 0 0 0
-82.96212 -76.208351 -125.35667 0 0 0
-82.867035 -75.758347 -125.38583 0 0 0
-82.716217 -78.257828 -124.98684 0 0 0
-83.123764 -77.59079 -124.99532 0 0 0
-83.325897 -77.108345 -124.97484 0 0 0
-83.402664 -76.658348 -124.99077 0 0 0
-83.409454 -76.05835 -124.99413 0 0 0
-83.105591 -75.758347 -125.21451 0 0 0
-82.687553 -78.592514 -124.80461 0 0 0
-83.154266 -78.127335 -124.72104 0 0 0
-83.452972 -77.542435 -124.72757 0 0 0
-83.792824 -77.108345 -124.52734 0 0 0
-83.714417 -76.658348 -124.69388 0 0 0
-83.714691 -76.05835 -124.69553 0 0 0
-82.993362 -78.780655 -124.41096 0 0 0
-83.461029 -78.1362 -124.42944 0 0 0
-83.747131 -77.536438 -124.4269 0 0 0
-84.08728 -77.108345 -124.17403 0 0 0
-84.0933 -76.733353 -124.22922 0 0 0
-84.008423 -76.358353 -124.36987 0 0 0
-83.74646 -78.119972 -124.11601 0 0 0
-84.014404 -77.577942 -124.07366 0 0 0
-84.219467 -77.55835 -123.76575 0 0 0
-84.404892 -77.085587 -123.65602 0 0 0
-83.79483 -78.446617 -123.78302 0 0 0
-84.677536 -77.108345 -123.04105 0 0 0
-84.581108 -76.845596 -123.36729 0 0 0
-84.359131 -76.658348 -123.84232 0 0 0
-84.365875 -76.208351 -123.85497 0 0 0
-84.098396 -75.983353 -124.23201 0 0 0
-84.761955 -76.80835 -122.90602 0 0 0
-84.600868 -76.508347 -123.37865 0 0 0
-84.585739 -76.04892 -123.36763 0 0 0
-84.326416 -75.715225 -123.81715 0 0 0
-84.817017 -76.358353 -122.75602 0 0 0
-84.74575 -75.758347 -122.90602 0 0 0
-84.546692 -75.608345 -123.33829 0 0 0
-84.328445 -75.24221 -123.6138 0 0 0
-84.001175 -75.608345 -124.29075 0 0 0
-84.950241 -76.283356 -122.13974 0 0 0
-84.931381 -75.908348 -122.1954 0 0 0
-84.851334 -75.908348 -122.60602 0 0 0
-84.790039 -75.458344 -122.60602 0 0 0
-84.565903 -75.182953 -123.06517 0 0 0
-84.986084 -75.908348 -121.55602 0 0 0
-84.903 -75.638092 -122.15602 0 0 0
-84.79644 -75.158348 -122.23102 0 0 0
-84.625992 -74.843781 -122.57254 0 0 0
-84.40889 -74.696594 -123.06593 0 0 0
-84.970909 -75.908348 -121.10602 0 0 0
-84.923264 -75.43161 -121.40602 0 0 0
-84.915993 -75.450562 -121.74004 0 0 0
-84.808426 -75.008347 -121.85602 0 0 0
-84.654465 -74.593094 -122.00602 0 0 0
-84.408226 -74.265121 -122.47261 0 0 0
-84.912338 -75.453835 -121.10602 0 0 0
-84.824081 -75.008347 -121.25602 0 0 0
-84.682129 -74.578438 -121.55602 0 0 0
-84.384506 -73.974304 -121.78102 0 0 0
-84.662712 -74.585678 -120.95602 0 0 0
-84.477448 -74.108345 -121.25602 0 0 0
-84.329468 -73.842224 -121.25602 0 0 0
-84.067169 -73.471001 -121.55602 0 0 0
-84.246597 -73.841644 -122.15602 0 0 0
-84.584526 -74.552193 -120.50602 0 0 0
-84.378662 -73.983002 -120.80602 0 0 0
-84.070267 -73.465927 -121.10602 0 0 0
-83.801804 -73.13266 -121.40602 0 0 0
-83.780472 -73.159546 -121.85602 0 0 0
-84.027252 -73.517525 -122.18049 0 0 0
-84.038597 -73.497223 -120.68732 0 0 0
-83.718506 -73.22731 -122.46587 0 0 0
-83.743805 -75.458344 -124.56624 0 0 0
-83.294289 -75.458344 -125.01071 0 0 0
-83.983887 -74.999054 -124.05756 0 0 0
-83.705688 -74.858353 -124.36781 0 0 0
-83.410049 -74.843781 -124.68466 0 0 0
-83.507271 -75.30835 -124.77576 0 0 0
-84.122032 -74.710739 -123.65602 0 0 0
-83.977753 -74.388359 -123.66527 0 0 0
-83.721474 -74.441345 -124.10602 0 0 0
-83.287552 -74.381149 -124.5723 0 0 0
-83.101562 -74.858353 -124.97868 0 0 0
-84.164612 -74.252197 -123.15541 0 0 0
-83.827072 -74.108345 -123.65778 0 0 0
-83.391014 -73.923431 -124.1204 0 0 0
-83.149963 -73.971855 -124.43089 0 0 0
-82.870438 -73.993423 -124.70647 0 0 0
-82.687553 -74.270638 -125.01743 0 0 0
-84.120651 -73.947769 -122.81891 0 0 0
-83.757942 -73.745857 -123.35602 0 0 0
-83.463806 -73.738098 -123.84328 0 0 0
-83.212921 -73.518105 -123.93519 0 0 0
-82.818909 -73.545265 -124.38916 0 0 0
-82.579391 -73.692551 -124.70853 0 0 0
-83.830368 -73.489853 -122.77339 0 0 0
-83.465347 -73.185783 -123.04308 0 0 0
-83.454041 -73.470245 -123.53265 0 0 0
-83.130524 -73.226402 -123.67345 0 0 0
-82.67617 -73.145416 -124.09423 0 0 0
-82.355682 -73.192062 -124.42292 0 0 0
-83.419296 -72.921509 -122.47133 0 0 0
-83.164841 -72.890747 -123.04062 0 0 0
-82.9561 -72.571022 -122.60602 0 0 0
-82.812866 -72.625626 -123.07979 0 0 0
-82.719208 -72.931923 -123.75578 0 0 0
-82.291016 -72.891785 -124.12701 0 0 0
-82.537552 -72.297882 -122.64278 0 0 0
-82.356903 -72.279831 -122.90602 0 0 0
-82.53009 -72.561722 -123.34738 0 0 0
-82.080841 -72.553093 -123.79367 0 0 0
-81.798828 -72.621078 -124.08243 0 0 0
-81.773438 -72.888733 -124.43773 0 0 0
-82.072334 -72.325912 -123.34864 0 0 0
-81.49585 -72.327797 -123.77502 0 0 0
-81.337555 -72.563095 -124.2294 0 0 0
-81.229095 -72.913078 -124.70066 0 0 0
-81.776611 -73.172836 -124.74054 0 0 0
-82.273346 -73.455002 -124.72935 0 0 0
-81.63755 -72.1604 -123.35602 0 0 0
-81.187553 -72.056366 -123.37271 0 0 0
-81.037552 -72.290894 -123.91726 0 0 0
-81.036331 -72.608551 -124.40602 0 0 0
-80.737549 -72.102806 -123.64257 0 0 0
-80.737549 -72.333817 -124.06461 0 0 0
-80.587555 -72.584396 -124.43671 0 0 0
-80.287552 -72.247269 -123.94205 0 0 0
-79.987549 -72.574539 -124.45139 0 0 0
-80.287552 -72.81472 -124.73807 0 0 0
-80.737549 -72.863953 -124.75563 0 0 0
-80.88755 -73.171204 -125.04012 0 0 0
-81.271759 -73.2202 -124.99589 0 0 0
-79.837555 -72.851028 -124.76462 0 0 0
-80.287552 -73.121063 -125.04646 0 0 0
-80.437553 -73.461502 -125.34093 0 0 0
-80.86158 -73.50338 -125.31635 0 0 0
-81.412552 -73.688782 -125.30679 0 0 0
-81.770844 -73.488327 -125.03072 0 0 0
-80.287552 -73.843735 -125.5853 0 0 0
-80.737549 -73.989166 -125.63762 0 0 0
-81.037552 -73.933502 -125.56029 0 0 0
-79.837555 -73.841988 -125.58369 0 0 0
-80.287552 -74.281006 -125.80699 0 0 0
-80.88755 -74.44857 -125.83679 0 0 0
-81.316444 -74.270309 -125.66855 0 0 0
-79.687553 -74.533371 -125.89647 0 0 0
-79.987549 -74.708351 -125.99228 0 0 0
-80.587555 -74.708351 -125.97458 0 0 0
-81.037552 -74.849449 -125.95589 0 0 0
-81.388916 -74.907944 -125.88997 0 0 0
-81.862549 -75.150497 -125.80128 0 0 0
-81.797577 -74.687408 -125.68221 0 0 0
-81.719452 -74.258347 -125.52433 0 0 0
-82.348328 -75.234917 -125.60344 0 0 0
-82.237549 -74.708351 -125.49913 0 0 0
-82.34053 -74.376007 -125.29408 0 0 0
-82.044846 -74.079773 -125.29855 0 0 0
-82.095741 -73.800949 -125.1004 0 0 0
-82.837555 -75.263847 -125.31847 0 0 0
-82.67482 -74.858353 -125.28625 0 0 0
0 0 0 1 0 0 0 1 0 0 0 1 0 0 0 0 0 1189 1 0 0
