ply
format ascii 1.0
comment PCL generated
element vertex 1167
property float x
property float y
property float z
property uchar red
property uchar green
property uchar blue
element camera 1
property float view_px
property float view_py
property float view_pz
property float x_axisx
property float x_axisy
property float x_axisz
property float y_axisx
property float y_axisy
property float y_axisz
property float z_axisx
property float z_axisy
property float z_axisz
property float focal
property float scalex
property float scaley
property float centerx
property float centery
property int viewportx
property int viewporty
property float k1
property float k2
end_header
8.3801317 -88.208351 -35.006016 0 0 0
7.9982605 -88.208351 -34.256012 0 0 0
8.7680092 -88.208351 -35.494354 0 0 0
8.7630825 -88.80835 -35.506443 0 0 0
8.2805033 -88.80835 -35.006016 0 0 0
8.0624514 -88.80835 -34.747486 0 0 0
9.2624521 -88.208351 -35.952702 0 0 0
9.3854752 -88.883347 -36.109779 0 0 0
9.1874933 -89.358353 -36.021507 0 0 0
8.6149473 -89.708351 -35.647331 0 0 0
8.0624514 -89.360046 -35.019474 0 0 0
9.5481348 -88.356232 -36.187775 0 0 0
9.8489952 -88.658348 -36.519073 0 0 0
9.8097134 -89.108353 -36.54377 0 0 0
9.7988462 -89.408348 -36.547508 0 0 0
9.1967459 -89.708351 -36.095886 0 0 0
9.9215574 -88.208351 -36.46003 0 0 0
10.223627 -88.508347 -36.769428 0 0 0
10.197405 -88.80835 -36.785839 0 0 0
10.190852 -89.258347 -36.789177 0 0 0
10.162452 -87.864868 -36.517288 0 0 0
10.162452 -88.208351 -36.635242 0 0 0
10.912453 -87.458351 -36.659264 0 0 0
10.604982 -87.901123 -36.75386 0 0 0
10.462452 -88.186005 -36.806015 0 0 0
11.287885 -87.486801 -36.810623 0 0 0
10.987453 -88.05835 -36.947247 0 0 0
10.612452 -88.508347 -36.935837 0 0 0
11.662452 -86.764107 -36.456085 0 0 0
11.662452 -87.008347 -36.636543 0 0 0
11.662452 -86.108345 -35.351032 0 0 0
11.662452 -86.249611 -35.606014 0 0 0
11.962452 -86.215279 -35.906013 0 0 0
11.994007 -86.417816 -36.206013 0 0 0
11.962452 -86.735275 -36.484165 0 0 0
11.962452 -87.142471 -36.745338 0 0 0
11.944189 -86.098434 -35.62709 0 0 0
12.225506 -86.108345 -35.915504 0 0 0
12.368853 -86.417183 -36.211594 0 0 0
12.262452 -86.87674 -36.564648 0 0 0
12.011777 -85.832062 -35.269222 0 0 0
12.262452 -85.835823 -35.565102 0 0 0
12.579913 -86.108345 -35.909588 0 0 0
12.862452 -86.475464 -36.151501 0 0 0
12.637452 -86.821136 -36.458885 0 0 0
12.372191 -87.315063 -36.811092 0 0 0
11.834381 -85.80835 -35.006016 0 0 0
11.962452 -85.616875 -34.856014 0 0 0
12.169953 -85.508347 -35.006016 0 0 0
12.262452 -85.567749 -35.179676 0 0 0
12.562452 -85.468491 -35.129372 0 0 0
12.562452 -85.824005 -35.606014 0 0 0
12.014223 -85.229218 -34.383221 0 0 0
12.262452 -85.176346 -34.527531 0 0 0
12.262452 -84.938492 -34.033028 0 0 0
12.712452 -84.995018 -34.106014 0 0 0
12.562452 -85.163834 -34.54179 0 0 0
12.262452 -84.864143 -33.806015 0 0 0
12.701591 -84.905052 -33.811615 0 0 0
11.962452 -84.772568 -33.506016 0 0 0
12.487452 -84.837296 -33.506016 0 0 0
11.362452 -84.791916 -33.056015 0 0 0
11.662452 -84.722305 -33.056015 0 0 0
11.004029 -84.889648 -32.756012 0 0 0
11.362452 -84.748878 -32.606014 0 0 0
10.762452 -85.035019 -32.456017 0 0 0
9.8624516 -85.575142 -32.006016 0 0 0
8.6705456 -86.408348 -32.634438 0 0 0
8.6825609 -86.428093 -32.306015 0 0 0
8.9763851 -86.122025 -32.37001 0 0 0
8.4381361 -86.708351 -32.906013 0 0 0
8.4114742 -86.769547 -32.606014 0 0 0
8.3165035 -86.928299 -32.906013 0 0 0
8.3067913 -86.872681 -32.456017 0 0 0
8.1303768 -87.30835 -33.506016 0 0 0
8.0945387 -87.367554 -33.206013 0 0 0
8.1019697 -87.262146 -32.90168 0 0 0
8.0268621 -87.256973 -32.606014 0 0 0
8.0950384 -87.041115 -32.306015 0 0 0
8.3624516 -86.699295 -32.045498 0 0 0
8.0362167 -87.547241 -33.506016 0 0 0
7.9232254 -87.608353 -33.056015 0 0 0
7.7927017 -87.675797 -32.606014 0 0 0
7.8994527 -87.30835 -32.306015 0 0 0
7.8916173 -87.30835 -32.006016 0 0 0
8.0770178 -87.008347 -32.006016 0 0 0
8.0532656 -87.574448 -33.806015 0 0 0
7.9376431 -87.908348 -33.806015 0 0 0
7.8175259 -87.908348 -33.356014 0 0 0
7.7415514 -87.860367 -32.906013 0 0 0
7.7078991 -87.908348 -32.456017 0 0 0
7.7696896 -87.63559 -32.306015 0 0 0
7.7337623 -88.369392 -33.783035 0 0 0
7.7318869 -88.140518 -33.506016 0 0 0
7.6321702 -88.208351 -33.056015 0 0 0
7.6293039 -88.208351 -32.456017 0 0 0
7.6862946 -88.05835 -32.006016 0 0 0
7.7719812 -87.648544 -32.006016 0 0 0
7.7754898 -88.632576 -34.082893 0 0 0
7.641664 -88.958351 -33.956017 0 0 0
7.6078744 -88.508347 -33.506016 0 0 0
7.53582 -88.750298 -33.206013 0 0 0
7.541945 -88.658348 -32.756012 0 0 0
7.9249392 -88.688522 -34.438087 0 0 0
7.7563839 -89.07196 -34.423054 0 0 0
7.6704459 -89.408348 -34.406013 0 0 0
7.5629158 -89.408348 -33.956017 0 0 0
7.4587612 -89.408348 -33.329193 0 0 0
7.4694147 -89.275421 -32.766174 0 0 0
7.8828721 -89.108353 -34.706013 0 0 0
7.7870646 -89.408348 -34.706013 0 0 0
7.7851634 -89.708351 -34.659187 0 0 0
7.6465597 -89.708351 -34.256012 0 0 0
7.4935923 -89.708351 -33.656013 0 0 0
8.0414429 -89.708351 -35.032063 0 0 0
7.9286995 -90.158348 -34.706013 0 0 0
7.7445393 -90.166092 -34.273277 0 0 0
7.5495815 -90.008347 -33.806015 0 0 0
7.4786863 -89.980698 -33.356014 0 0 0
7.4404578 -89.708351 -33.206013 0 0 0
8.3191633 -89.708351 -35.354683 0 0 0
8.0886326 -90.143982 -34.97274 0 0 0
8.1160355 -90.77813 -34.706013 0 0 0
7.8708477 -90.677917 -34.247715 0 0 0
7.654314 -90.458351 -33.806015 0 0 0
7.5864372 -90.458351 -33.356014 0 0 0
8.6230049 -90.008347 -35.646622 0 0 0
8.357029 -90.13208 -35.320652 0 0 0
8.326767 -90.608353 -35.121727 0 0 0
8.3624516 -90.909721 -35.006016 0 0 0
8.5164661 -91.322006 -34.880272 0 0 0
8.1045046 -91.08242 -34.417267 0 0 0
8.9384518 -90.008347 -35.927094 0 0 0
8.9624519 -90.350052 -35.916069 0 0 0
8.6829233 -90.47274 -35.589592 0 0 0
8.6310043 -90.908348 -35.340637 0 0 0
9.4327354 -90.008347 -36.288559 0 0 0
9.3050241 -90.30835 -36.177879 0 0 0
9.4030037 -90.638725 -36.137859 0 0 0
9.0064259 -90.608353 -35.869637 0 0 0
8.9826641 -91.073151 -35.595451 0 0 0
8.8428869 -91.311073 -35.296288 0 0 0
9.8095875 -89.858353 -36.53714 0 0 0
9.7124519 -90.32164 -36.421463 0 0 0
10.079593 -90.732986 -36.490364 0 0 0
9.8870602 -91.053391 -36.249176 0 0 0
9.2624521 -91.079025 -35.837711 0 0 0
9.2561264 -91.656586 -35.46228 0 0 0
10.335527 -89.633347 -36.84647 0 0 0
10.280495 -90.008347 -36.776791 0 0 0
10.314695 -90.304207 -36.734665 0 0 0
10.606709 -90.688995 -36.733101 0 0 0
10.487091 -91.048203 -36.547119 0 0 0
10.462452 -88.958351 -36.920113 0 0 0
10.762452 -89.55835 -37.027107 0 0 0
10.762452 -90.158348 -36.945847 0 0 0
11.224084 -90.85144 -36.850071 0 0 0
10.902225 -91.383026 -36.53746 0 0 0
10.320338 -91.493073 -36.258587 0 0 0
10.88592 -89.033356 -37.079758 0 0 0
11.043612 -89.577911 -37.112434 0 0 0
11.112869 -90.008347 -37.092743 0 0 0
11.212452 -90.279846 -37.04818 0 0 0
11.818898 -91.028412 -36.88562 0 0 0
11.512451 -91.508347 -36.635315 0 0 0
11.045532 -88.700073 -37.102585 0 0 0
11.512451 -88.80835 -37.197983 0 0 0
11.512451 -89.18335 -37.217155 0 0 0
11.512451 -89.633347 -37.202759 0 0 0
11.512451 -90.008347 -37.162727 0 0 0
11.881603 -90.406853 -37.097164 0 0 0
11.484082 -88.376984 -37.122566 0 0 0
12.112452 -88.508347 -37.20163 0 0 0
12.112452 -88.80835 -37.249466 0 0 0
11.962452 -89.258347 -37.263264 0 0 0
12.112452 -89.858353 -37.222111 0 0 0
11.512451 -87.908348 -37.019005 0 0 0
12.112452 -88.023804 -37.092857 0 0 0
12.562452 -88.658348 -37.21965 0 0 0
12.412453 -89.258347 -37.25592 0 0 0
11.662452 -87.608353 -36.943455 0 0 0
12.112452 -87.608353 -36.964756 0 0 0
12.596455 -88.048843 -37.074127 0 0 0
11.634155 -87.30835 -36.810356 0 0 0
12.562452 -87.608353 -36.924747 0 0 0
13.012451 -87.908348 -36.934647 0 0 0
13.012451 -88.242432 -37.03606 0 0 0
13.076862 -88.642883 -37.109329 0 0 0
13.462452 -88.658348 -37.006824 0 0 0
13.410467 -89.108353 -37.090919 0 0 0
13.012451 -88.958351 -37.175076 0 0 0
13.012451 -89.333344 -37.191895 0 0 0
12.712452 -89.783356 -37.215187 0 0 0
13.612452 -88.21463 -36.858177 0 0 0
13.873983 -88.508347 -36.820251 0 0 0
13.762452 -88.958351 -36.940582 0 0 0
14.01508 -89.55835 -36.861866 0 0 0
13.435353 -89.55835 -37.090977 0 0 0
13.47028 -87.758347 -36.741844 0 0 0
13.810474 -87.747131 -36.588192 0 0 0
14.21637 -88.06955 -36.498203 0 0 0
14.541018 -88.508347 -36.461731 0 0 0
14.207297 -88.958351 -36.721024 0 0 0
12.999593 -87.597633 -36.815773 0 0 0
13.024617 -87.170197 -36.581688 0 0 0
13.625755 -87.30835 -36.457092 0 0 0
14.225826 -87.368805 -36.173782 0 0 0
14.67564 -88.069664 -36.221443 0 0 0
13.400873 -86.867355 -36.268974 0 0 0
13.923712 -87.008347 -36.131203 0 0 0
14.350429 -87.020134 -35.889454 0 0 0
14.675269 -87.471161 -35.92511 0 0 0
13.302759 -86.384857 -35.931335 0 0 0
13.898708 -86.700012 -35.921761 0 0 0
14.394107 -86.708351 -35.606014 0 0 0
14.70175 -87.008347 -35.606014 0 0 0
14.962452 -87.331635 -35.589058 0 0 0
15.133445 -87.758347 -35.66153 0 0 0
12.862452 -86.148315 -35.871117 0 0 0
13.312452 -86.079086 -35.631668 0 0 0
13.762452 -86.199356 -35.517593 0 0 0
14.038419 -86.283936 -35.432884 0 0 0
14.52985 -86.480774 -35.236153 0 0 0
15.120293 -86.952286 -35.081017 0 0 0
12.862452 -85.746414 -35.431702 0 0 0
13.29575 -85.806801 -35.316887 0 0 0
13.632339 -85.700455 -35.017578 0 0 0
14.062452 -85.850204 -34.949097 0 0 0
14.364967 -86.108345 -35.006016 0 0 0
12.995377 -85.498993 -35.030922 0 0 0
13.57021 -85.513489 -34.730019 0 0 0
14.180446 -85.781288 -34.706013 0 0 0
14.666939 -86.108345 -34.711563 0 0 0
15.121172 -86.55835 -34.716999 0 0 0
13.000331 -85.267296 -34.568764 0 0 0
13.462452 -85.321892 -34.406013 0 0 0
13.928009 -85.522415 -34.399803 0 0 0
14.379675 -85.786606 -34.432343 0 0 0
14.662452 -85.903412 -34.256012 0 0 0
14.933517 -86.139053 -34.266018 0 0 0
13.312452 -85.119614 -34.133553 0 0 0
13.735712 -85.219498 -34.068581 0 0 0
14.062452 -85.409096 -34.106014 0 0 0
14.329203 -85.530426 -34.040634 0 0 0
14.780033 -85.763611 -33.806015 0 0 0
13.312452 -84.993118 -33.806015 0 0 0
13.882851 -85.185745 -33.806015 0 0 0
14.421624 -85.472549 -33.806015 0 0 0
13.187099 -84.902786 -33.327553 0 0 0
13.462452 -84.957375 -33.312965 0 0 0
13.762452 -85.078156 -33.356014 0 0 0
14.045515 -85.218597 -33.356014 0 0 0
14.480351 -85.479202 -33.506016 0 0 0
12.637452 -84.807076 -33.206013 0 0 0
13.012451 -84.778748 -32.906013 0 0 0
13.632854 -84.943726 -32.906013 0 0 0
14.313507 -85.237534 -32.606014 0 0 0
14.479558 -85.472343 -33.206013 0 0 0
11.962452 -84.703804 -33.056015 0 0 0
12.412453 -84.707367 -32.906013 0 0 0
13.012451 -84.742264 -32.606014 0 0 0
13.537448 -84.883728 -32.606014 0 0 0
13.912453 -85.038696 -32.606014 0 0 0
11.662452 -84.677452 -32.606014 0 0 0
11.962452 -84.654732 -32.606014 0 0 0
12.412453 -84.663887 -32.606014 0 0 0
12.412453 -84.680542 -32.306015 0 0 0
12.937451 -84.799294 -32.081017 0 0 0
13.612452 -84.965401 -32.296711 0 0 0
11.662452 -84.679375 -32.306015 0 0 0
11.962452 -84.681129 -32.156013 0 0 0
12.262452 -84.735962 -31.856014 0 0 0
12.562452 -84.796417 -31.631014 0 0 0
13.02548 -84.933945 -31.372444 0 0 0
13.396594 -84.973106 -31.944984 0 0 0
11.362452 -84.754929 -32.306015 0 0 0
11.662452 -84.73452 -32.006016 0 0 0
12.112452 -84.806839 -31.556015 0 0 0
12.262452 -84.908348 -31.119146 0 0 0
12.58987 -84.907639 -31.103783 0 0 0
11.062452 -84.901367 -32.306015 0 0 0
11.243976 -84.886375 -32.006016 0 0 0
11.390225 -84.920502 -31.754078 0 0 0
11.705997 -84.906769 -31.516144 0 0 0
11.962452 -85.014664 -31.018934 0 0 0
12.262452 -85.110489 -30.631433 0 0 0
10.720019 -85.205505 -31.869799 0 0 0
11.137452 -85.144241 -31.46674 0 0 0
11.558394 -85.143921 -30.975403 0 0 0
11.792223 -85.213531 -30.539463 0 0 0
10.462452 -85.247208 -32.142967 0 0 0
10.609791 -85.389053 -31.251934 0 0 0
11.197556 -85.298325 -30.672981 0 0 0
11.662452 -85.299339 -30.206015 0 0 0
12.112452 -85.288574 -30.206015 0 0 0
10.021498 -85.579437 -31.456013 0 0 0
10.330273 -85.517487 -30.94799 0 0 0
10.631145 -85.478455 -30.506014 0 0 0
11.212452 -85.366364 -30.206015 0 0 0
11.662452 -85.389603 -29.906013 0 0 0
12.112452 -85.387772 -29.906013 0 0 0
9.6063137 -85.768539 -31.526012 0 0 0
9.5624514 -85.787468 -31.106014 0 0 0
9.8624516 -85.651604 -31.106014 0 0 0
10.012451 -85.657684 -30.656013 0 0 0
10.598995 -85.563736 -30.206015 0 0 0
11.228715 -85.478439 -29.906013 0 0 0
9.4942846 -85.80835 -32.006016 0 0 0
9.1717205 -86.053726 -31.706015 0 0 0
9.0664368 -86.115311 -31.406013 0 0 0
9.0721235 -86.131958 -31.106014 0 0 0
9.576684 -85.80835 -30.856503 0 0 0
9.2914314 -85.872894 -32.244862 0 0 0
9.1436024 -86.065704 -32.006016 0 0 0
8.6624517 -86.421501 -31.884342 0 0 0
8.6623688 -86.408348 -31.405628 0 0 0
8.7130527 -86.457092 -31.106014 0 0 0
8.3386841 -86.679382 -31.706015 0 0 0
8.3624516 -86.708351 -31.422342 0 0 0
8.5023994 -86.708351 -31.106014 0 0 0
8.6544876 -86.851974 -30.649267 0 0 0
8.9491997 -86.393494 -30.760479 0 0 0
8.0827866 -87.042366 -31.706015 0 0 0
8.1727581 -87.008347 -31.406013 0 0 0
8.3570118 -86.999405 -30.996912 0 0 0
8.0053053 -87.292488 -31.54521 0 0 0
8.1157398 -87.451225 -31.016632 0 0 0
8.3275299 -87.340637 -30.67207 0 0 0
8.6525173 -87.276062 -30.191574 0 0 0
8.9246693 -86.874153 -30.222824 0 0 0
9.1388912 -86.482727 -30.364895 0 0 0
7.8426785 -87.75708 -31.556015 0 0 0
7.8895245 -88.05835 -31.106014 0 0 0
8.1153612 -87.885788 -30.648409 0 0 0
8.3668499 -87.738686 -30.262028 0 0 0
8.6430397 -87.760666 -29.848728 0 0 0
8.9267673 -87.442368 -29.723501 0 0 0
7.7309546 -88.213287 -31.559132 0 0 0
7.774456 -88.688499 -31.156525 0 0 0
8.0030584 -88.342285 -30.665659 0 0 0
8.2239265 -88.358353 -30.206015 0 0 0
8.3988857 -88.208351 -29.962658 0 0 0
7.6757727 -88.658348 -31.556015 0 0 0
7.6408453 -89.258347 -31.556015 0 0 0
7.805119 -89.258347 -30.956015 0 0 0
7.8624687 -88.958351 -30.806015 0 0 0
8.0897713 -88.80835 -30.323483 0 0 0
8.3485994 -88.676575 -29.910643 0 0 0
7.5915403 -88.658348 -32.006016 0 0 0
7.5366726 -89.258347 -32.156013 0 0 0
7.5989218 -89.858353 -31.931015 0 0 0
7.7247329 -89.587311 -31.256014 0 0 0
7.5569477 -88.658348 -32.306015 0 0 0
7.4507294 -89.708351 -32.780571 0 0 0
7.4624519 -90.001488 -32.906013 0 0 0
7.6055818 -90.30835 -32.156013 0 0 0
7.7275381 -90.292923 -31.565624 0 0 0
7.7686157 -89.93335 -31.230568 0 0 0
7.561574 -90.458351 -32.906013 0 0 0
7.6193275 -90.608353 -32.456017 0 0 0
7.7208648 -90.757347 -32.006016 0 0 0
7.9142346 -90.975212 -31.544334 0 0 0
7.8859572 -90.458351 -31.181015 0 0 0
7.9048824 -89.858353 -30.806015 0 0 0
7.7330265 -91.037155 -32.756012 0 0 0
7.752564 -91.019424 -32.306015 0 0 0
7.9363232 -91.283356 -31.856014 0 0 0
8.1727085 -91.508347 -31.256014 0 0 0
8.1120815 -90.526306 -30.656013 0 0 0
7.7388926 -91.031029 -33.206013 0 0 0
7.9361506 -91.508347 -33.056015 0 0 0
7.9996862 -91.633743 -32.606014 0 0 0
8.0550117 -91.663208 -32.156013 0 0 0
8.2187519 -91.80835 -31.556015 0 0 0
7.7665324 -90.896339 -33.695923 0 0 0
7.9177961 -91.28511 -33.656013 0 0 0
8.0899487 -91.728653 -33.356014 0 0 0
8.1631222 -91.945518 -32.756012 0 0 0
8.2477474 -92.108353 -32.306015 0 0 0
8.3164968 -92.185333 -32.006016 0 0 0
8.110364 -91.369125 -34.130203 0 0 0
8.3147097 -91.932739 -33.806015 0 0 0
8.4123001 -92.279121 -33.08934 0 0 0
8.3943691 -92.357101 -32.606014 0 0 0
8.3934908 -92.360031 -32.306015 0 0 0
8.4172802 -91.670464 -34.429329 0 0 0
8.3497353 -91.80835 -34.134552 0 0 0
8.6057453 -92.177246 -34.106014 0 0 0
8.6542015 -92.432175 -33.63562 0 0 0
8.6891098 -92.671898 -33.206013 0 0 0
8.6624517 -92.696907 -32.756012 0 0 0
8.8076286 -91.804169 -34.861664 0 0 0
8.6744442 -92.093971 -34.366173 0 0 0
9.2422657 -92.127563 -35.045757 0 0 0
8.9451284 -92.108353 -34.729729 0 0 0
8.909935 -92.450577 -34.195835 0 0 0
8.9530087 -92.719208 -33.842434 0 0 0
8.8815556 -92.797333 -33.506016 0 0 0
9.7053165 -92.264923 -35.317963 0 0 0
9.7027855 -92.567886 -35.006016 0 0 0
9.39851 -92.55835 -34.721851 0 0 0
9.2624521 -92.793839 -34.239521 0 0 0
9.37325 -93.044815 -33.971268 0 0 0
9.1815109 -93.07254 -33.506016 0 0 0
9.5656605 -91.805229 -35.606014 0 0 0
10.033502 -92.108353 -35.685547 0 0 0
10.395649 -92.271004 -35.759888 0 0 0
10.339708 -92.727821 -35.325592 0 0 0
10.091719 -93.065536 -34.764191 0 0 0
9.5796795 -92.995667 -34.365742 0 0 0
9.6032066 -91.3946 -35.90527 0 0 0
9.995182 -91.799713 -35.891853 0 0 0
10.591573 -91.833237 -36.181904 0 0 0
10.8785 -92.395493 -35.895248 0 0 0
10.926934 -92.735428 -35.624886 0 0 0
11.212452 -91.781174 -36.42305 0 0 0
11.301822 -92.264648 -36.131512 0 0 0
11.362452 -92.652481 -35.857563 0 0 0
11.512451 -92.985977 -35.564346 0 0 0
10.928181 -93.030777 -35.324768 0 0 0
11.812452 -91.825012 -36.516563 0 0 0
11.662452 -92.302063 -36.189178 0 0 0
11.810633 -92.708351 -35.887989 0 0 0
12.112452 -93.008347 -35.595486 0 0 0
11.812452 -93.363052 -35.132149 0 0 0
11.362452 -93.260864 -35.184319 0 0 0
12.112452 -91.450958 -36.746902 0 0 0
12.187452 -91.988762 -36.458565 0 0 0
12.112452 -92.37941 -36.185066 0 0 0
12.39784 -92.714424 -35.904629 0 0 0
12.712452 -92.994385 -35.578526 0 0 0
12.412453 -93.27594 -35.264343 0 0 0
12.412453 -90.908348 -36.983017 0 0 0
12.562452 -91.394119 -36.7869 0 0 0
12.562452 -91.871185 -36.544678 0 0 0
12.712452 -92.108353 -36.373535 0 0 0
12.712452 -92.369629 -36.175755 0 0 0
13.012451 -92.66951 -35.866604 0 0 0
12.262452 -90.428398 -37.12072 0 0 0
12.712452 -90.469955 -37.107948 0 0 0
12.862452 -90.758347 -37.008789 0 0 0
12.862452 -91.380531 -36.76762 0 0 0
13.000631 -91.826981 -36.514725 0 0 0
13.162452 -92.291595 -36.164047 0 0 0
12.562452 -90.158348 -37.178337 0 0 0
13.134747 -90.246292 -37.100208 0 0 0
13.162452 -90.758347 -36.9519 0 0 0
13.294506 -91.208351 -36.767647 0 0 0
13.312452 -91.508347 -36.625381 0 0 0
13.603958 -91.615738 -36.483192 0 0 0
13.762452 -91.208351 -36.658752 0 0 0
14.062452 -91.363777 -36.428238 0 0 0
13.612452 -92.058197 -36.191811 0 0 0
13.493133 -90.769699 -36.867783 0 0 0
13.772065 -90.776215 -36.782169 0 0 0
14.062452 -90.758347 -36.670143 0 0 0
13.612452 -90.30835 -36.946686 0 0 0
14.074976 -90.118668 -36.801899 0 0 0
14.379975 -90.458351 -36.571453 0 0 0
14.341927 -90.834633 -36.492813 0 0 0
13.186026 -89.858353 -37.137482 0 0 0
13.687452 -89.858353 -36.980846 0 0 0
14.492226 -90.008347 -36.56411 0 0 0
14.627466 -90.458351 -36.400749 0 0 0
14.631171 -91.037689 -36.224716 0 0 0
14.516233 -91.505447 -36.067204 0 0 0
14.019822 -91.79171 -36.195351 0 0 0
14.092392 -92.282188 -35.769611 0 0 0
13.582493 -92.421074 -35.916779 0 0 0
15.001179 -91.058365 -35.941029 0 0 0
14.962576 -91.678253 -35.594479 0 0 0
14.637901 -91.946648 -35.677681 0 0 0
14.392159 -91.86203 -35.925144 0 0 0
14.921278 -90.608353 -36.176498 0 0 0
15.280883 -90.426338 -35.895794 0 0 0
15.421162 -90.758347 -35.617004 0 0 0
15.406958 -91.185104 -35.443062 0 0 0
15.247274 -91.694756 -35.289513 0 0 0
14.948943 -92.078415 -35.292496 0 0 0
14.974263 -90.161469 -36.215065 0 0 0
15.302244 -90.008347 -35.947742 0 0 0
15.848899 -90.13208 -35.284698 0 0 0
15.667892 -90.758347 -35.330643 0 0 0
15.743859 -91.208351 -35.006016 0 0 0
15.491051 -91.666 -35.01799 0 0 0
14.994806 -89.483353 -36.223763 0 0 0
15.310542 -89.55835 -35.953709 0 0 0
15.596043 -89.55835 -35.645344 0 0 0
14.662452 -89.55835 -36.484245 0 0 0
14.63929 -88.958351 -36.479057 0 0 0
14.944189 -88.666443 -36.188904 0 0 0
15.274319 -88.872612 -35.914711 0 0 0
14.362452 -89.55835 -36.680882 0 0 0
15.034071 -88.208351 -35.973347 0 0 0
15.327625 -88.208351 -35.678417 0 0 0
15.572735 -88.358353 -35.426102 0 0 0
15.576197 -88.993263 -35.596405 0 0 0
15.824193 -88.958351 -35.256149 0 0 0
15.950944 -89.392548 -35.151352 0 0 0
15.562452 -87.929489 -35.306015 0 0 0
15.747321 -87.908348 -35.006016 0 0 0
15.862452 -88.248123 -35.006016 0 0 0
15.933821 -88.658348 -35.024582 0 0 0
15.325445 -87.476295 -35.29781 0 0 0
15.55074 -87.43824 -34.947327 0 0 0
15.879559 -87.608353 -34.518021 0 0 0
15.947011 -87.89299 -34.556015 0 0 0
16.116167 -88.43335 -34.591591 0 0 0
15.517678 -87.008347 -34.650219 0 0 0
15.682131 -87.008347 -34.406013 0 0 0
15.862452 -87.33062 -34.406013 0 0 0
15.955617 -87.30835 -34.106014 0 0 0
16.123615 -87.742943 -34.106014 0 0 0
16.25016 -88.300209 -34.174782 0 0 0
15.353508 -86.621483 -34.406013 0 0 0
15.820848 -87.067245 -34.106014 0 0 0
16.02565 -87.30835 -33.656013 0 0 0
16.212173 -87.773178 -33.806015 0 0 0
15.414036 -86.565552 -34.093498 0 0 0
15.518898 -86.526108 -33.806015 0 0 0
15.849977 -87.008347 -33.763618 0 0 0
15.214373 -86.158066 -33.806015 0 0 0
15.281937 -86.108345 -33.568275 0 0 0
15.567459 -86.408348 -33.523468 0 0 0
15.831495 -86.824257 -33.506016 0 0 0
14.962452 -85.829872 -33.506016 0 0 0
14.96584 -85.822479 -33.070023 0 0 0
15.295321 -86.097473 -33.056015 0 0 0
15.598232 -86.408348 -33.206013 0 0 0
15.935245 -86.875526 -33.206013 0 0 0
14.704597 -85.508347 -32.606014 0 0 0
15.010276 -85.764252 -32.606014 0 0 0
15.306356 -86.061066 -32.606014 0 0 0
15.58028 -86.396957 -32.756012 0 0 0
15.856745 -86.769081 -32.756012 0 0 0
14.237415 -85.252304 -32.306015 0 0 0
14.662452 -85.508972 -32.30864 0 0 0
15.002687 -85.773209 -32.306015 0 0 0
15.445052 -86.221924 -32.306015 0 0 0
14.043514 -85.217316 -32.065163 0 0 0
14.552965 -85.527794 -32.006016 0 0 0
14.96896 -85.897598 -31.781015 0 0 0
15.238958 -86.130249 -31.856014 0 0 0
15.689592 -86.577744 -32.006016 0 0 0
15.946749 -86.881134 -32.306015 0 0 0
13.921958 -85.273193 -31.563215 0 0 0
14.240573 -85.549835 -31.106014 0 0 0
14.662452 -85.815857 -31.127848 0 0 0
14.934334 -86.139626 -30.941427 0 0 0
15.299751 -86.376221 -31.293514 0 0 0
13.462452 -85.055725 -31.556015 0 0 0
13.579058 -85.189407 -31.106014 0 0 0
14.038948 -85.521637 -30.867878 0 0 0
14.253506 -85.818848 -30.548113 0 0 0
14.647892 -86.040817 -30.656013 0 0 0
13.012451 -84.989792 -31.106014 0 0 0
13.297704 -85.199265 -30.800095 0 0 0
13.738054 -85.457474 -30.666527 0 0 0
13.680803 -85.814728 -29.999599 0 0 0
14.219914 -86.108345 -30.038292 0 0 0
12.846182 -85.136734 -30.661692 0 0 0
13.012451 -85.743607 -29.606014 0 0 0
13.595078 -86.031036 -29.606014 0 0 0
14.085896 -86.390656 -29.568172 0 0 0
14.423601 -86.382706 -29.875351 0 0 0
14.680115 -86.373329 -30.183651 0 0 0
12.562452 -85.10598 -30.63875 0 0 0
12.562452 -85.402969 -30.023329 0 0 0
12.562452 -85.589546 -29.606014 0 0 0
12.862452 -85.866989 -29.372974 0 0 0
13.186238 -86.096359 -29.284119 0 0 0
13.5321 -86.289047 -29.298462 0 0 0
12.262452 -85.525597 -29.639744 0 0 0
12.434019 -85.806686 -29.323917 0 0 0
12.412453 -86.128448 -29.038908 0 0 0
13.003386 -86.317184 -29.028095 0 0 0
13.598001 -86.689835 -29.000099 0 0 0
14.083386 -86.691269 -29.276585 0 0 0
11.962452 -85.527664 -29.639286 0 0 0
11.992687 -85.80835 -29.309937 0 0 0
11.962452 -86.135033 -29.02725 0 0 0
12.262452 -86.525391 -28.74015 0 0 0
12.562452 -86.535851 -28.7607 0 0 0
13.01448 -86.764435 -28.718048 0 0 0
11.662452 -85.54599 -29.661543 0 0 0
11.512451 -85.824783 -29.390991 0 0 0
11.662452 -86.288223 -28.957211 0 0 0
11.962452 -86.525574 -28.742016 0 0 0
12.412453 -87.055496 -28.437401 0 0 0
12.893881 -87.15097 -28.465191 0 0 0
11.362452 -85.578995 -29.703228 0 0 0
10.899277 -85.826675 -29.62151 0 0 0
11.287452 -86.210228 -29.119102 0 0 0
11.511419 -86.686127 -28.691288 0 0 0
11.812452 -87.056519 -28.431128 0 0 0
10.607464 -85.73172 -29.903057 0 0 0
10.299143 -86.129257 -29.621073 0 0 0
10.893164 -86.12719 -29.330339 0 0 0
10.694144 -86.597809 -29.014839 0 0 0
11.062452 -86.890396 -28.676575 0 0 0
11.244596 -87.231552 -28.435184 0 0 0
10.000671 -85.857422 -30.184984 0 0 0
10.035269 -86.028984 -29.906013 0 0 0
9.8624516 -86.408348 -29.637297 0 0 0
10.29501 -86.455475 -29.324688 0 0 0
10.14299 -86.990997 -29.006014 0 0 0
10.509879 -87.147606 -28.73365 0 0 0
9.8443985 -85.797867 -30.461939 0 0 0
9.5746212 -86.03244 -30.36272 0 0 0
9.5624514 -86.406586 -29.906013 0 0 0
9.5803642 -86.925652 -29.464085 0 0 0
9.9274998 -86.739166 -29.328415 0 0 0
9.8545446 -87.149231 -29.092859 0 0 0
9.2473812 -86.094193 -30.749321 0 0 0
9.3193436 -86.165565 -30.506014 0 0 0
9.1447659 -86.889221 -29.928322 0 0 0
9.2402096 -87.173012 -29.59548 0 0 0
9.1282511 -87.745255 -29.329185 0 0 0
9.727685 -87.608353 -28.912506 0 0 0
8.949295 -88.170929 -29.306013 0 0 0
9.4496164 -87.908348 -28.97687 0 0 0
10.005886 -87.897812 -28.615816 0 0 0
10.133938 -87.50145 -28.714712 0 0 0
8.6624517 -88.208771 -29.606014 0 0 0
8.6189899 -88.658348 -29.552795 0 0 0
8.9029875 -88.658348 -29.24725 0 0 0
9.2439575 -88.367165 -28.993076 0 0 0
9.6671848 -88.208351 -28.716915 0 0 0
8.3396778 -89.108353 -29.873981 0 0 0
8.6015415 -89.108353 -29.533781 0 0 0
8.9412384 -89.408348 -29.171577 0 0 0
9.1920242 -88.958351 -28.940891 0 0 0
9.5466003 -88.658348 -28.692497 0 0 0
8.0385103 -89.108353 -30.389788 0 0 0
8.1609468 -89.55835 -30.206015 0 0 0
8.3539248 -89.556076 -29.893654 0 0 0
8.613986 -89.55835 -29.548643 0 0 0
8.0314608 -89.55835 -30.445179 0 0 0
8.3301315 -90.158348 -30.088379 0 0 0
8.6526413 -90.134499 -29.599617 0 0 0
8.9092216 -90.008347 -29.242092 0 0 0
8.0774231 -90.158348 -30.537157 0 0 0
8.4068956 -90.758347 -30.203455 0 0 0
8.6674576 -90.773636 -29.810875 0 0 0
8.9572163 -90.422363 -29.299448 0 0 0
9.1893435 -90.008347 -28.936474 0 0 0
16.184574 -89.108353 -34.746044 0 0 0
16.125408 -89.55835 -34.882828 0 0 0
16.014477 -90.158348 -35.006016 0 0 0
15.88047 -90.758347 -35.028099 0 0 0
16.170494 -88.80835 -34.706013 0 0 0
16.345806 -88.80835 -34.256012 0 0 0
16.347265 -89.108353 -34.406013 0 0 0
16.422693 -89.55835 -34.272083 0 0 0
16.261328 -89.858353 -34.57737 0 0 0
16.484941 -88.80835 -33.869469 0 0 0
16.486408 -89.272141 -34.039642 0 0 0
16.60541 -89.55835 -33.656013 0 0 0
16.565023 -90.008347 -33.806015 0 0 0
16.448996 -90.162643 -34.072357 0 0 0
16.225985 -90.281937 -34.545837 0 0 0
16.436913 -88.340927 -33.806015 0 0 0
16.554411 -88.508347 -33.506016 0 0 0
16.612743 -88.958351 -33.506016 0 0 0
16.468721 -88.208351 -33.549164 0 0 0
16.502113 -88.180298 -33.056015 0 0 0
16.612738 -88.658348 -33.206013 0 0 0
16.709787 -89.108353 -33.056015 0 0 0
16.366108 -87.908348 -33.356014 0 0 0
16.466057 -87.908348 -32.926086 0 0 0
16.476746 -87.870522 -32.606014 0 0 0
16.570066 -88.208351 -32.606014 0 0 0
16.643591 -88.658348 -32.756012 0 0 0
16.170517 -87.608353 -33.551159 0 0 0
16.222647 -87.465256 -33.206013 0 0 0
16.361919 -87.608353 -32.906013 0 0 0
16.101583 -87.158348 -32.906013 0 0 0
16.268181 -87.451424 -32.531013 0 0 0
16.314758 -87.608353 -32.156013 0 0 0
16.438309 -87.919434 -32.061459 0 0 0
16.612679 -88.358353 -32.306015 0 0 0
16.176607 -87.275314 -32.006016 0 0 0
16.219864 -87.465317 -31.723175 0 0 0
16.348183 -87.908348 -31.406013 0 0 0
16.512705 -88.185135 -31.856014 0 0 0
16.031033 -87.008347 -32.006016 0 0 0
15.932636 -87.160713 -31.373955 0 0 0
16.162735 -87.595566 -31.272903 0 0 0
16.2015 -87.914841 -30.963257 0 0 0
16.31179 -88.208351 -30.956015 0 0 0
16.504902 -88.368431 -31.510769 0 0 0
15.617355 -86.687958 -31.489336 0 0 0
15.605036 -86.951096 -30.806015 0 0 0
15.89528 -87.453903 -30.825418 0 0 0
15.926085 -87.923325 -30.356014 0 0 0
16.156239 -88.244003 -30.519764 0 0 0
16.419167 -88.670464 -30.945513 0 0 0
15.300566 -86.593292 -30.806015 0 0 0
15.629833 -87.167206 -30.531025 0 0 0
15.717368 -87.608353 -30.206015 0 0 0
15.597836 -87.908348 -29.788103 0 0 0
15.868637 -88.275253 -30.009008 0 0 0
16.12991 -88.508347 -30.324036 0 0 0
15.042953 -86.635437 -30.35227 0 0 0
15.122471 -86.996353 -30.01487 0 0 0
15.551495 -87.489273 -30.063931 0 0 0
14.729722 -86.84272 -29.700882 0 0 0
15.191948 -87.436005 -29.670855 0 0 0
15.090491 -87.745071 -29.327507 0 0 0
15.297316 -88.172592 -29.289276 0 0 0
15.591998 -88.340248 -29.559761 0 0 0
14.475655 -86.676056 -29.606014 0 0 0
14.396962 -86.902153 -29.320759 0 0 0
14.688608 -87.276909 -29.259819 0 0 0
14.723186 -87.769867 -28.981224 0 0 0
14.97396 -88.160217 -28.996117 0 0 0
15.323385 -88.508347 -29.183647 0 0 0
14.222414 -87.147964 -29.006014 0 0 0
14.387519 -87.800552 -28.713337 0 0 0
14.821235 -88.441483 -28.773983 0 0 0
14.791466 -88.80835 -28.64716 0 0 0
15.25679 -88.981483 -28.988289 0 0 0
15.554586 -88.990425 -29.289364 0 0 0
13.609167 -87.079567 -28.746798 0 0 0
14.098984 -87.441696 -28.747301 0 0 0
13.878019 -87.853241 -28.416424 0 0 0
14.224549 -88.172424 -28.459381 0 0 0
14.216253 -88.600403 -28.340122 0 0 0
13.477219 -87.448929 -28.481644 0 0 0
13.312452 -87.695145 -28.303703 0 0 0
13.60305 -88.223663 -28.16667 0 0 0
13.585148 -88.508347 -28.083633 0 0 0
13.929496 -88.950089 -28.144178 0 0 0
14.548487 -89.108353 -28.432938 0 0 0
12.712452 -87.513321 -28.25206 0 0 0
13.019594 -88.077492 -28.07394 0 0 0
13.012451 -88.508347 -27.937016 0 0 0
13.462452 -88.958351 -27.970879 0 0 0
13.887516 -89.408348 -28.077084 0 0 0
14.482496 -89.408348 -28.372398 0 0 0
12.412453 -87.81395 -28.08079 0 0 0
12.412453 -88.208351 -27.942795 0 0 0
12.412453 -88.508347 -27.8708 0 0 0
12.712452 -88.834244 -27.831676 0 0 0
13.162452 -88.958351 -27.891472 0 0 0
13.312452 -89.408348 -27.898838 0 0 0
11.962452 -87.48703 -28.212053 0 0 0
11.962452 -88.05835 -27.985115 0 0 0
12.074344 -88.733208 -27.821186 0 0 0
12.112452 -89.18335 -27.773392 0 0 0
12.700879 -89.248779 -27.794006 0 0 0
11.662452 -87.458351 -28.252913 0 0 0
11.512451 -87.805977 -28.129066 0 0 0
11.512451 -88.208351 -27.985996 0 0 0
11.512451 -88.508347 -27.910843 0 0 0
11.512438 -88.958351 -27.84763 0 0 0
11.062452 -87.758347 -28.23909 0 0 0
10.897268 -88.034836 -28.179281 0 0 0
11.062452 -88.658348 -27.97373 0 0 0
10.912453 -89.258347 -27.954769 0 0 0
11.494322 -89.408348 -27.822159 0 0 0
10.750378 -87.449425 -28.476242 0 0 0
10.446165 -87.749298 -28.451994 0 0 0
10.319837 -88.295715 -28.320677 0 0 0
10.755433 -88.33609 -28.130264 0 0 0
10.626194 -88.891205 -28.077782 0 0 0
9.9821854 -88.508347 -28.441298 0 0 0
10.162452 -88.958351 -28.260155 0 0 0
9.8807354 -88.958351 -28.416782 0 0 0
9.8224697 -89.408348 -28.406013 0 0 0
10.291634 -89.408348 -28.163092 0 0 0
9.5305157 -89.258347 -28.617744 0 0 0
9.4987583 -89.858353 -28.660599 0 0 0
9.8789005 -89.867706 -28.416763 0 0 0
10.307003 -89.727051 -28.169949 0 0 0
10.912453 -89.708351 -27.949406 0 0 0
11.517446 -89.700119 -27.829453 0 0 0
9.3337231 -89.408348 -28.769703 0 0 0
9.1737652 -89.708351 -28.91713 0 0 0
9.2696323 -90.498047 -29.011551 0 0 0
9.561923 -90.459702 -28.756851 0 0 0
9.8230228 -90.458351 -28.581642 0 0 0
9.1969986 -90.908348 -29.24439 0 0 0
9.5785255 -91.093826 -29.018555 0 0 0
9.8624516 -91.036743 -28.788214 0 0 0
10.302475 -90.920135 -28.473026 0 0 0
10.312452 -90.592209 -28.350861 0 0 0
10.132326 -90.158348 -28.327633 0 0 0
8.9436531 -91.036613 -29.584023 0 0 0
9.4097385 -91.360641 -29.317272 0 0 0
10.031038 -91.646103 -29.018295 0 0 0
10.150791 -91.371681 -28.778 0 0 0
10.590145 -91.208351 -28.459986 0 0 0
10.900532 -90.764328 -28.178871 0 0 0
8.6930552 -91.208351 -30.019581 0 0 0
8.954464 -91.67054 -30.050863 0 0 0
9.235713 -91.685867 -29.738472 0 0 0
9.5219164 -91.951096 -29.67922 0 0 0
9.8448544 -91.841148 -29.29192 0 0 0
8.3294144 -91.191788 -30.643265 0 0 0
8.5978355 -91.799248 -30.663876 0 0 0
9.0771408 -92.143127 -30.331587 0 0 0
9.5238838 -92.443237 -30.131641 0 0 0
9.8212948 -92.299606 -29.732122 0 0 0
10.126658 -92.258347 -29.456013 0 0 0
8.3624516 -91.80809 -31.106367 0 0 0
8.5631971 -92.108353 -31.106014 0 0 0
8.6712627 -92.096001 -30.840214 0 0 0
8.8508577 -92.358376 -30.956015 0 0 0
9.2384109 -92.432388 -30.440212 0 0 0
8.3806324 -92.074051 -31.556015 0 0 0
8.6439457 -92.43782 -31.570459 0 0 0
8.9624519 -92.639038 -31.24799 0 0 0
9.2317057 -92.731216 -30.964773 0 0 0
9.5466957 -92.720093 -30.466335 0 0 0
9.8353367 -92.728378 -30.151756 0 0 0
8.4644623 -92.408348 -32.006016 0 0 0
8.6810112 -92.679062 -32.156013 0 0 0
8.8933506 -92.777954 -31.706015 0 0 0
9.2624521 -93.008347 -31.422506 0 0 0
9.7191706 -93.043167 -30.82563 0 0 0
8.984623 -92.972794 -32.156013 0 0 0
9.2314157 -93.119141 -31.856014 0 0 0
9.6204557 -93.268684 -31.406013 0 0 0
9.8515253 -93.30835 -31.106014 0 0 0
10.151266 -93.229263 -30.645657 0 0 0
10.162452 -92.984222 -30.206015 0 0 0
8.9624519 -93.000221 -32.606014 0 0 0
9.435276 -93.363983 -32.606014 0 0 0
9.4418068 -93.347137 -32.306015 0 0 0
9.5249529 -93.32692 -31.856014 0 0 0
9.8624516 -93.463737 -31.556015 0 0 0
10.30085 -93.547104 -31.106014 0 0 0
8.9797888 -92.982826 -33.056015 0 0 0
9.4473124 -93.339432 -33.056015 0 0 0
9.8446312 -93.604073 -33.030994 0 0 0
9.8464279 -93.604752 -32.484085 0 0 0
10.034157 -93.649017 -32.006016 0 0 0
10.142552 -93.618187 -31.578968 0 0 0
9.5736551 -93.30098 -33.693634 0 0 0
9.8624516 -93.484344 -33.656013 0 0 0
10.132908 -93.622604 -33.638393 0 0 0
10.162452 -93.74202 -33.206013 0 0 0
10.162452 -93.772827 -32.906013 0 0 0
10.320868 -93.825516 -32.456017 0 0 0
9.8515606 -93.30835 -34.119785 0 0 0
10.389283 -93.509155 -34.254044 0 0 0
10.612452 -93.804871 -33.646202 0 0 0
10.643048 -93.92717 -33.206013 0 0 0
10.612452 -93.949379 -32.906013 0 0 0
10.005652 -93.239075 -34.419712 0 0 0
10.613823 -93.366486 -34.706013 0 0 0
10.77647 -93.661179 -34.246765 0 0 0
11.212452 -93.838715 -34.071533 0 0 0
11.077124 -93.94651 -33.656013 0 0 0
11.212452 -94.062332 -33.281013 0 0 0
10.422806 -93.049835 -35.030785 0 0 0
10.887959 -93.287819 -34.975769 0 0 0
11.062452 -93.576019 -34.588089 0 0 0
11.606232 -93.828003 -34.249954 0 0 0
11.512451 -93.98967 -33.806015 0 0 0
11.481667 -93.60498 -34.691475 0 0 0
11.962452 -93.630905 -34.744629 0 0 0
11.962452 -93.864388 -34.256012 0 0 0
11.962452 -94.03051 -33.806015 0 0 0
11.662452 -94.113365 -33.356014 0 0 0
12.262452 -93.552353 -34.875755 0 0 0
12.318577 -93.856018 -34.25016 0 0 0
12.412453 -94.018631 -33.806015 0 0 0
12.112452 -94.121834 -33.356014 0 0 0
11.812452 -94.183395 -32.906013 0 0 0
11.212452 -94.112778 -32.906013 0 0 0
12.787452 -93.339615 -35.117325 0 0 0
12.727624 -93.674484 -34.548779 0 0 0
12.862452 -93.925125 -33.920986 0 0 0
13.012451 -94.021912 -33.506016 0 0 0
12.562452 -94.108551 -33.356014 0 0 0
12.412453 -94.187538 -32.868675 0 0 0
13.162452 -92.971832 -35.492874 0 0 0
13.348461 -93.301926 -34.995026 0 0 0
13.312452 -93.486389 -34.706013 0 0 0
13.305327 -93.690117 -34.268124 0 0 0
13.318663 -93.870483 -33.806015 0 0 0
13.580227 -92.718307 -35.617447 0 0 0
13.629618 -92.990738 -35.278664 0 0 0
13.771423 -93.235184 -34.868866 0 0 0
13.775667 -93.548264 -34.256012 0 0 0
13.762452 -93.729767 -33.806015 0 0 0
13.615444 -93.880402 -33.431015 0 0 0
14.235667 -92.650322 -35.313461 0 0 0
14.212452 -92.886543 -35.038948 0 0 0
14.212452 -93.11129 -34.706013 0 0 0
14.110924 -93.320847 -34.431721 0 0 0
14.137452 -93.498184 -33.947182 0 0 0
14.246106 -93.581848 -33.506016 0 0 0
14.362452 -92.225395 -35.6483 0 0 0
14.644537 -92.377274 -35.289978 0 0 0
14.644413 -92.707321 -34.874634 0 0 0
14.512451 -93.100082 -34.393723 0 0 0
14.527727 -93.222984 -34.106014 0 0 0
14.654083 -93.310669 -33.634445 0 0 0
15.074213 -92.407669 -34.769417 0 0 0
14.978097 -92.722015 -34.451378 0 0 0
14.942801 -92.986023 -33.976334 0 0 0
14.962452 -93.161171 -33.356014 0 0 0
14.823523 -93.313957 -33.056015 0 0 0
15.24193 -92.083389 -34.951477 0 0 0
15.526424 -91.978989 -34.644749 0 0 0
15.299099 -92.427185 -34.435047 0 0 0
15.272516 -92.718262 -33.925556 0 0 0
15.202304 -92.95195 -33.356014 0 0 0
15.87565 -91.388397 -34.623466 0 0 0
15.847011 -91.7798 -34.284859 0 0 0
15.629066 -92.238586 -34.106014 0 0 0
15.594694 -92.447166 -33.686447 0 0 0
15.467839 -92.686142 -33.356014 0 0 0
15.235352 -93.008347 -32.756012 0 0 0
16.104679 -90.751183 -34.561241 0 0 0
16.103828 -91.212303 -34.256012 0 0 0
16.049141 -91.508347 -34.106014 0 0 0
16.100975 -91.666306 -33.650597 0 0 0
15.852676 -92.100647 -33.685493 0 0 0
16.309864 -90.758347 -34.106014 0 0 0
16.317055 -91.05835 -33.806015 0 0 0
16.488945 -90.442268 -33.798264 0 0 0
16.488066 -90.747902 -33.47554 0 0 0
16.363182 -91.208351 -33.356014 0 0 0
16.211933 -91.645447 -33.206013 0 0 0
15.973658 -92.108353 -33.056015 0 0 0
16.611759 -90.158348 -33.431015 0 0 0
16.548832 -90.770737 -33.056015 0 0 0
16.454672 -91.186745 -32.736576 0 0 0
16.315781 -91.508347 -32.756012 0 0 0
16.205185 -91.740494 -32.514996 0 0 0
16.714317 -89.858353 -33.056015 0 0 0
16.686363 -90.30835 -32.906013 0 0 0
16.603674 -90.758347 -32.606014 0 0 0
16.512417 -91.061432 -32.284981 0 0 0
16.733078 -89.408348 -33.056015 0 0 0
16.757303 -89.450363 -32.531013 0 0 0
16.762451 -89.70871 -32.536339 0 0 0
16.717899 -90.158348 -32.606014 0 0 0
16.665224 -90.458351 -32.306015 0 0 0
16.711697 -88.958351 -32.381016 0 0 0
16.713833 -89.258347 -31.856014 0 0 0
16.734583 -89.858353 -32.156013 0 0 0
16.628103 -90.458351 -31.856014 0 0 0
16.478453 -91.024544 -31.856014 0 0 0
16.321199 -91.508347 -32.006016 0 0 0
16.663574 -88.658348 -32.006016 0 0 0
16.62203 -88.80835 -31.556015 0 0 0
16.58655 -89.108353 -31.256014 0 0 0
16.602304 -89.55835 -31.256014 0 0 0
16.70129 -89.858353 -31.706015 0 0 0
16.611984 -90.158348 -31.406013 0 0 0
16.534878 -90.608353 -31.406013 0 0 0
16.39484 -91.042755 -31.418941 0 0 0
16.22596 -91.529068 -31.556015 0 0 0
16.504759 -89.917221 -30.945118 0 0 0
16.476383 -90.30835 -30.990704 0 0 0
16.400253 -90.608353 -30.956015 0 0 0
16.375294 -90.908348 -31.106014 0 0 0
16.206326 -91.347397 -31.140833 0 0 0
16.469543 -89.257263 -30.786648 0 0 0
16.358433 -89.858353 -30.506014 0 0 0
16.260239 -90.458351 -30.506014 0 0 0
16.211386 -90.891968 -30.656013 0 0 0
16.224661 -88.939804 -30.351494 0 0 0
16.271576 -89.408348 -30.336781 0 0 0
16.112066 -89.633347 -30.033218 0 0 0
16.182243 -90.008347 -30.173435 0 0 0
16.137091 -90.458351 -30.247751 0 0 0
15.89569 -88.80835 -29.788479 0 0 0
15.93341 -89.108353 -29.769825 0 0 0
15.587214 -89.55835 -29.277903 0 0 0
15.844895 -89.55835 -29.617615 0 0 0
15.927536 -90.008347 -29.773003 0 0 0
15.895668 -90.30835 -29.788759 0 0 0
15.293631 -89.55835 -28.977192 0 0 0
15.249958 -90.18856 -29.012104 0 0 0
15.547466 -90.158348 -29.321304 0 0 0
14.960843 -89.273079 -28.700428 0 0 0
14.950194 -89.890823 -28.703907 0 0 0
14.788395 -90.30835 -28.652733 0 0 0
15.035239 -90.608353 -28.943909 0 0 0
15.345583 -90.608353 -29.225658 0 0 0
14.630005 -89.858353 -28.481544 0 0 0
14.393445 -89.858353 -28.337841 0 0 0
14.362452 -90.363342 -28.394104 0 0 0
14.671635 -90.72229 -28.698711 0 0 0
14.9651 -91.063477 -29.071142 0 0 0
15.240967 -91.082672 -29.327259 0 0 0
13.88377 -89.783356 -28.088758 0 0 0
14.014647 -90.158348 -28.192751 0 0 0
14.189477 -90.608353 -28.366533 0 0 0
14.201237 -91.05835 -28.561665 0 0 0
14.681604 -91.32576 -28.99231 0 0 0
15.106216 -91.501991 -29.456013 0 0 0
13.387452 -89.858353 -27.935768 0 0 0
13.605131 -90.30835 -28.056658 0 0 0
13.616999 -90.69236 -28.162632 0 0 0
13.754017 -91.05835 -28.344687 0 0 0
13.906371 -91.508347 -28.634968 0 0 0
14.348863 -91.634636 -28.950354 0 0 0
12.84633 -89.642815 -27.806013 0 0 0
13.012451 -90.158348 -27.892826 0 0 0
13.162452 -90.608353 -28.006922 0 0 0
13.162452 -91.05835 -28.160618 0 0 0
13.430862 -91.348969 -28.356899 0 0 0
12.412453 -89.708351 -27.771362 0 0 0
12.562452 -90.158348 -27.831413 0 0 0
12.712452 -90.608353 -27.940992 0 0 0
12.712452 -91.0271 -28.085339 0 0 0
13.012451 -91.528748 -28.34256 0 0 0
11.962452 -89.55835 -27.774033 0 0 0
12.262452 -90.180931 -27.821075 0 0 0
12.112452 -90.608353 -27.920429 0 0 0
12.112452 -91.039307 -28.062986 0 0 0
12.412453 -91.508347 -28.266335 0 0 0
13.012451 -91.778603 -28.490852 0 0 0
11.790395 -90.008347 -27.818409 0 0 0
11.812452 -90.30835 -27.866831 0 0 0
11.662452 -90.758347 -28.002052 0 0 0
11.512451 -91.175629 -28.173763 0 0 0
11.962452 -91.643745 -28.346542 0 0 0
12.412453 -91.772034 -28.41489 0 0 0
11.212452 -90.158348 -27.939295 0 0 0
11.347409 -90.758347 -28.056904 0 0 0
11.062452 -91.208351 -28.286222 0 0 0
11.239507 -91.549057 -28.412853 0 0 0
11.662452 -91.628952 -28.371338 0 0 0
10.750441 -90.175125 -28.067226 0 0 0
10.485834 -90.158348 -28.164421 0 0 0
10.762452 -91.644989 -28.628651 0 0 0
11.062452 -91.886887 -28.658461 0 0 0
11.212452 -92.100647 -28.761074 0 0 0
11.812452 -92.155632 -28.672935 0 0 0
10.44007 -91.658348 -28.787897 0 0 0
10.59444 -92.102318 -29.017948 0 0 0
11.182873 -92.394012 -29.018433 0 0 0
11.662452 -92.618347 -29.097605 0 0 0
10.642788 -92.449165 -29.314964 0 0 0
11.250863 -92.712921 -29.301003 0 0 0
11.812452 -93.040092 -29.527304 0 0 0
12.037452 -92.5821 -29.018658 0 0 0
10.635374 -92.755318 -29.612705 0 0 0
11.193235 -92.991364 -29.621099 0 0 0
11.503565 -93.294205 -29.926849 0 0 0
12.112452 -93.326622 -29.878929 0 0 0
12.262452 -93.035446 -29.494839 0 0 0
10.14403 -92.732758 -29.892887 0 0 0
10.597485 -92.999878 -29.924997 0 0 0
11.062452 -93.27269 -30.072256 0 0 0
11.3424 -93.524834 -30.356014 0 0 0
11.812452 -93.577377 -30.323933 0 0 0
10.630613 -93.291946 -30.36145 0 0 0
11.062452 -93.655495 -30.716564 0 0 0
11.512451 -93.79892 -30.806015 0 0 0
11.962452 -93.881546 -30.928177 0 0 0
12.262452 -93.634781 -30.388241 0 0 0
10.612452 -93.541321 -30.806015 0 0 0
10.975101 -93.839844 -31.24581 0 0 0
11.395205 -93.945755 -31.263748 0 0 0
11.662452 -93.974777 -31.240774 0 0 0
10.612452 -93.772598 -31.406013 0 0 0
10.608992 -93.84967 -31.706015 0 0 0
11.062452 -94.002129 -31.706015 0 0 0
11.512451 -94.078285 -31.706015 0 0 0
11.962452 -94.08242 -31.556015 0 0 0
10.649929 -93.920135 -32.006016 0 0 0
11.062452 -94.048172 -32.156013 0 0 0
11.512451 -94.126053 -32.156013 0 0 0
10.912453 -94.039787 -32.531013 0 0 0
11.512451 -94.168892 -32.606014 0 0 0
11.953687 -94.208351 -32.63279 0 0 0
11.962452 -94.174698 -32.156013 0 0 0
12.449156 -94.203125 -32.606014 0 0 0
12.262452 -94.183899 -32.17614 0 0 0
12.412453 -94.102844 -31.706015 0 0 0
12.412453 -93.998734 -31.327387 0 0 0
13.012451 -94.112061 -32.606014 0 0 0
12.637452 -94.148666 -32.156013 0 0 0
13.012451 -94.028038 -31.706015 0 0 0
12.862452 -93.930367 -31.284023 0 0 0
13.012451 -93.756645 -30.881016 0 0 0
12.412453 -93.844421 -30.868885 0 0 0
13.012451 -94.083923 -33.056015 0 0 0
13.462452 -94.004379 -32.456017 0 0 0
13.087452 -94.07634 -32.156013 0 0 0
13.583387 -93.929474 -32.006016 0 0 0
13.462452 -93.915024 -31.680557 0 0 0
13.312452 -93.870392 -31.394016 0 0 0
13.462452 -93.988556 -33.056015 0 0 0
13.906719 -93.842758 -32.906013 0 0 0
13.904901 -93.834763 -32.456017 0 0 0
14.20368 -93.676819 -33.175682 0 0 0
14.512451 -93.534225 -32.906013 0 0 0
14.512451 -93.540924 -32.606014 0 0 0
14.20518 -93.665314 -32.079269 0 0 0
13.762452 -93.772507 -31.556015 0 0 0
14.913709 -93.272079 -32.456017 0 0 0
14.694359 -93.392197 -32.156013 0 0 0
14.250709 -93.587753 -31.706015 0 0 0
14.062452 -93.556252 -31.25293 0 0 0
13.612452 -93.616806 -30.946516 0 0 0
15.227396 -92.976494 -32.156013 0 0 0
15.073812 -93.047195 -31.781013 0 0 0
14.674725 -93.31678 -31.639057 0 0 0
14.50351 -93.336212 -31.331013 0 0 0
14.341986 -93.293556 -30.943546 0 0 0
14.007812 -93.321182 -30.612741 0 0 0
15.533997 -92.708351 -32.756012 0 0 0
15.532181 -92.675613 -32.156013 0 0 0
15.600756 -92.524002 -31.706015 0 0 0
15.275791 -92.728607 -31.27409 0 0 0
14.946514 -92.996407 -31.22677 0 0 0
14.54426 -93.002388 -30.573101 0 0 0
15.811525 -92.340332 -33.056015 0 0 0
15.905421 -92.229858 -32.456017 0 0 0
15.893379 -92.223335 -32.006016 0 0 0
15.897556 -92.156448 -31.706015 0 0 0
15.571202 -92.410011 -31.272713 0 0 0
16.152384 -91.789749 -31.830204 0 0 0
16.00178 -91.80835 -31.256014 0 0 0
15.83409 -92.062027 -31.256014 0 0 0
15.939264 -91.643669 -30.806015 0 0 0
15.579333 -92.129486 -30.731209 0 0 0
15.282284 -92.439529 -30.672087 0 0 0
14.983998 -92.727028 -30.679462 0 0 0
16.090502 -91.200768 -30.656013 0 0 0
15.819464 -91.360413 -30.279007 0 0 0
15.574109 -91.86132 -30.365471 0 0 0
15.262452 -91.968018 -30.032471 0 0 0
14.982447 -92.408348 -30.182674 0 0 0
15.889396 -90.786606 -29.987349 0 0 0
15.580567 -91.332565 -29.880329 0 0 0
14.986044 -91.976517 -29.728155 0 0 0
14.677625 -92.565796 -30.049982 0 0 0
15.623697 -90.608353 -29.529179 0 0 0
15.501638 -91.070084 -29.600231 0 0 0
14.243382 -92.991119 -30.233513 0 0 0
13.612452 -93.36985 -30.399704 0 0 0
12.975721 -93.612183 -30.499834 0 0 0
14.198895 -92.789948 -29.906013 0 0 0
13.762452 -93.008347 -29.902411 0 0 0
13.462452 -92.983788 -29.71587 0 0 0
13.237452 -93.310059 -30.085609 0 0 0
12.805915 -93.386276 -30.052723 0 0 0
12.562452 -93.625137 -30.393799 0 0 0
14.357749 -92.258347 -29.447403 0 0 0
13.930047 -92.703964 -29.620802 0 0 0
13.336086 -92.688385 -29.31856 0 0 0
12.996615 -93.018181 -29.588964 0 0 0
12.562452 -92.960297 -29.424683 0 0 0
14.701511 -92.126686 -29.58897 0 0 0
14.662452 -91.835068 -29.306013 0 0 0
13.929986 -92.075066 -29.033741 0 0 0
13.944886 -92.39164 -29.320187 0 0 0
12.712452 -92.549652 -29.015472 0 0 0
12.412453 -92.408348 -28.856548 0 0 0
12.412453 -92.166191 -28.667061 0 0 0
12.862452 -92.761368 -29.249741 0 0 0
13.206005 -92.408348 -28.992458 0 0 0
12.976012 -92.113617 -28.702663 0 0 0
13.462452 -91.86792 -28.665154 0 0 0
13.901072 -91.792641 -28.807194 0 0 0
13.462452 -92.235809 -28.943451 0 0 0
0 0 0 1 0 0 0 1 0 0 0 1 0 0 0 0 0 1167 1 0 0
