ply
format ascii 1.0
comment PCL generated
element vertex 769
property float x
property float y
property float z
property uchar red
property uchar green
property uchar blue
element camera 1
property float view_px
property float view_py
property float view_pz
property float x_axisx
property float x_axisy
property float x_axisz
property float y_axisx
property float y_axisy
property float y_axisz
property float z_axisx
property float z_axisy
property float z_axisz
property float focal
property float scalex
property float scaley
property float centerx
property float centery
property int viewportx
property int viewporty
property float k1
property float k2
end_header
-0.13450709 -0.060382862 -0.0084464625 255 255 255
-0.13560627 -0.059639975 -0.0083545167 255 255 255
-0.13483264 -0.059940267 -0.0082274936 255 255 255
-0.13666897 -0.058599163 -0.0083187306 255 255 255
-0.13689998 -0.057458851 -0.0082274936 255 255 255
-0.13683785 -0.05639613 -0.0082233734 255 255 255
-0.13596924 -0.055043597 -0.008129295 255 255 255
-0.13541602 -0.060168374 -0.0072604031 255 255 255
-0.13454849 -0.060253326 -0.0074127293 255 255 255
-0.13379623 -0.060143523 -0.0072715776 255 255 255
-0.13711558 -0.05903564 -0.0071061808 255 255 255
-0.13650262 -0.059382532 -0.0074385721 255 255 255
-0.13563955 -0.059752584 -0.0077058012 255 255 255
-0.13469057 -0.059969876 -0.0079433434 255 255 255
-0.13333938 -0.059760075 -0.007594706 255 255 255
-0.13262284 -0.059270211 -0.0074701291 255 255 255
-0.13724847 -0.058406305 -0.0073720198 255 255 255
-0.13677245 -0.058524776 -0.0078559695 255 255 255
-0.13222067 -0.058639776 -0.0070908917 255 255 255
-0.13740869 -0.057440322 -0.0074238302 255 255 255
-0.13695973 -0.057458851 -0.0079433434 255 255 255
-0.13727456 -0.056470241 -0.0073682037 255 255 255
-0.13682996 -0.056345511 -0.0078451019 255 255 255
-0.13134387 -0.056470219 -0.0074616764 255 255 255
-0.13713096 -0.055862069 -0.0071262722 255 255 255
-0.13650097 -0.055516783 -0.0074208896 255 255 255
-0.13594356 -0.055198111 -0.0077531682 255 255 255
-0.13602732 -0.054759432 -0.0070908922 255 255 255
-0.1355661 -0.05446279 -0.0076076118 255 255 255
-0.1345485 -0.054207746 -0.0074126455 255 255 255
-0.1481698 0.012881314 -0.0072073205 255 255 255
-0.14751258 0.01259092 -0.0075254282 255 255 255
-0.14906499 0.01366893 -0.0071694567 255 255 255
-0.14855777 0.013355811 -0.0075424723 255 255 255
-0.14420958 0.013243792 -0.0072454098 255 255 255
-0.14923188 0.014410438 -0.0072618183 255 255 255
-0.14878894 0.014341907 -0.0077880053 255 255 255
-0.14919207 0.015477532 -0.0072755632 255 255 255
-0.14879827 0.01566432 -0.0077186548 255 255 255
-0.14416924 0.015628695 -0.0070738727 255 255 255
-0.14905806 0.016307982 -0.0071068313 255 255 255
-0.14848675 0.016609531 -0.0074601169 255 255 255
-0.14746825 0.016743794 -0.0075513422 255 255 255
-0.14686793 0.01677545 -0.00744608 255 255 255
-0.14430761 0.016689101 -0.0072339498 255 255 255
-0.14818771 0.01712632 -0.0070854831 255 255 255
-0.14732288 0.017494414 -0.0074017337 255 255 255
-0.14650853 0.017731089 -0.007537582 255 255 255
-0.1454813 0.017593144 -0.0075092958 255 255 255
-0.14705111 0.018008424 -0.0070908922 255 255 255
-0.14662489 0.018025516 -0.0070908922 255 255 255
-0.13631238 -0.060136683 -0.0064426935 255 255 255
-0.13556106 -0.060402073 -0.006570152 255 255 255
-0.13452007 -0.060571294 -0.0065693362 255 255 255
-0.13356064 -0.060310673 -0.0065247975 255 255 255
-0.13724273 -0.059270915 -0.0064782873 255 255 255
-0.13672233 -0.05977406 -0.0066190287 255 255 255
-0.13312773 -0.059992064 -0.0068067419 255 255 255
-0.13253191 -0.059473589 -0.0065422785 255 255 255
-0.13199113 -0.05902167 -0.0060449201 255 255 255
-0.13766822 -0.058482509 -0.0065454193 255 255 255
-0.13216113 -0.058696445 -0.0067357044 255 255 255
-0.13191786 -0.05841466 -0.0064685028 255 255 255
-0.13788962 -0.057510309 -0.0064843372 255 255 255
-0.13174744 -0.057484269 -0.0064634262 255 255 255
-0.13773237 -0.056488227 -0.0065021836 255 255 255
-0.1317596 -0.056593902 -0.006606088 255 255 255
-0.1372678 -0.055624716 -0.0065090111 255 255 255
-0.13673705 -0.055125616 -0.006608143 255 255 255
-0.13254026 -0.055592082 -0.0064978586 255 255 255
-0.1363547 -0.054771263 -0.0064627305 255 255 255
-0.1356625 -0.054498546 -0.0064745368 255 255 255
-0.1345485 -0.054438595 -0.0065225917 255 255 255
-0.1336146 -0.054728717 -0.0065631992 255 255 255
-0.14902812 0.012877665 -0.0062162187 255 255 255
-0.14845929 0.012701984 -0.0065102857 255 255 255
-0.14757746 0.012298625 -0.0065815509 255 255 255
-0.14663376 0.012309104 -0.0065173637 255 255 255
-0.14567973 0.012821925 -0.0065794215 255 255 255
-0.14934623 0.013449028 -0.0065068109 255 255 255
-0.14880723 0.013118409 -0.006863242 255 255 255
-0.14534621 0.013054919 -0.0062384414 255 255 255
-0.1447771 0.013448942 -0.0065401569 255 255 255
-0.14974736 0.014448488 -0.0065443181 255 255 255
-0.14436761 0.014370335 -0.0065820259 255 255 255
-0.14974657 0.015598354 -0.0065589035 255 255 255
-0.14458707 0.015674645 -0.0064998781 255 255 255
-0.1493769 0.016550904 -0.0065330588 255 255 255
-0.14896743 0.016846491 -0.0068067419 255 255 255
-0.14719319 0.016883908 -0.0068699005 255 255 255
-0.14640056 0.016860183 -0.0064533949 255 255 255
-0.14563055 0.016631518 -0.0063644731 255 255 255
-0.14433587 0.016508676 -0.0064290413 255 255 255
-0.14906456 0.017127981 -0.0063450555 255 255 255
-0.1484607 0.017521175 -0.0065378221 255 255 255
-0.147424 0.01738582 -0.0065183211 255 255 255
-0.14652768 0.01719722 -0.0064693843 255 255 255
-0.14537342 0.017796421 -0.0066160145 255 255 255
-0.14464554 0.01736852 -0.0064400118 255 255 255
-0.14818771 0.018066658 -0.0062384414 255 255 255
-0.14746296 0.018241957 -0.006464567 255 255 255
-0.14645496 0.018296404 -0.0065491218 255 255 255
-0.14574139 0.01819597 -0.0063596079 255 255 255
-0.13639946 -0.060159281 -0.0055280621 255 255 255
-0.13558586 -0.060477011 -0.00551609 255 255 255
-0.1345485 -0.060595036 -0.0055280621 255 255 255
-0.13350731 -0.060360059 -0.0055269604 255 255 255
-0.1328436 -0.060023051 -0.0054807025 255 255 255
-0.1374003 -0.059320588 -0.0055239676 255 255 255
-0.13682508 -0.059876848 -0.005534186 255 255 255
-0.13243096 -0.059619796 -0.0055348263 255 255 255
-0.13197589 -0.059046131 -0.0055280621 255 255 255
-0.13802564 -0.058169264 -0.0053859907 255 255 255
-0.13787755 -0.058552373 -0.0055564749 255 255 255
-0.13171966 -0.058443122 -0.0055280612 255 255 255
-0.13807938 -0.057458855 -0.0055280612 255 255 255
-0.13161711 -0.057415564 -0.0055714669 255 255 255
-0.1380254 -0.056748468 -0.0056701358 255 255 255
-0.13792719 -0.056421004 -0.0054976521 255 255 255
-0.13178395 -0.056577142 -0.0053427275 255 255 255
-0.13740887 -0.055444717 -0.0055163619 255 255 255
-0.13697644 -0.055043597 -0.0059542763 255 255 255
-0.13316132 -0.055067647 -0.0051018405 255 255 255
-0.13255443 -0.055607099 -0.0053316448 255 255 255
-0.13650919 -0.054698851 -0.0054730237 255 255 255
-0.13572443 -0.05441476 -0.0055371658 255 255 255
-0.1344966 -0.054428495 -0.0052155005 255 255 255
-0.13369383 -0.054761879 -0.0053453976 255 255 255
-0.14912193 0.012839215 -0.0055122767 255 255 255
-0.14847757 0.012435249 -0.0055446126 255 255 255
-0.14739572 0.012076313 -0.0054983152 255 255 255
-0.14649385 0.012153867 -0.0054634837 255 255 255
-0.14558499 0.012697989 -0.0052315532 255 255 255
-0.1496174 0.013435056 -0.0055336803 255 255 255
-0.14517243 0.013123346 -0.0052912738 255 255 255
-0.14485538 0.013559905 -0.0053859907 255 255 255
-0.15008076 0.014636423 -0.0054175612 255 255 255
-0.14993799 0.014138215 -0.0057254657 255 255 255
-0.14450422 0.014582443 -0.0054888767 255 255 255
-0.15008794 0.015539394 -0.005499647 255 255 255
-0.14994536 0.015994025 -0.0059542763 255 255 255
-0.14501603 0.015994025 -0.0055280621 255 255 255
-0.14459652 0.015552051 -0.0054372512 255 255 255
-0.14389744 0.015951302 -0.0052783955 255 255 255
-0.15001519 0.016278191 -0.0051018405 255 255 255
-0.14978504 0.016591726 -0.0055814246 255 255 255
-0.14612234 0.016893273 -0.0055280584 255 255 255
-0.14543892 0.016591141 -0.0055379341 255 255 255
-0.14447547 0.016351707 -0.0055903057 255 255 255
-0.14389609 0.016461467 -0.005462565 255 255 255
-0.14926985 0.017305462 -0.0055204197 255 255 255
-0.1487529 0.017782282 -0.0055743675 255 255 255
-0.14743786 0.01739502 -0.0055384957 255 255 255
-0.14653014 0.017252691 -0.0055598379 255 255 255
-0.14569063 0.017359717 -0.0055761202 255 255 255
-0.14448662 0.017513284 -0.0055210949 255 255 255
-0.1482794 0.01821935 -0.0055387882 255 255 255
-0.14744151 0.018498238 -0.0054941322 255 255 255
-0.14650846 0.018542429 -0.0055401884 255 255 255
-0.14549704 0.01828404 -0.0055056284 255 255 255
-0.13630275 -0.060104806 -0.0047725309 255 255 255
-0.13557024 -0.060293261 -0.0045318198 255 255 255
-0.13456552 -0.060435403 -0.0045348383 255 255 255
-0.13358602 -0.060232479 -0.0045436574 255 255 255
-0.13723211 -0.059232406 -0.0045854286 255 255 255
-0.13665484 -0.059706163 -0.0043952414 255 255 255
-0.13311647 -0.059879273 -0.0042358595 255 255 255
-0.13250458 -0.059466925 -0.0045001884 255 255 255
-0.13199113 -0.05902167 -0.0049255001 255 255 255
-0.13769729 -0.058473557 -0.00451364 255 255 255
-0.13209052 -0.058737565 -0.0042493897 255 255 255
-0.13185994 -0.058457877 -0.0045468751 255 255 255
-0.13801047 -0.057458851 -0.0048176902 255 255 255
-0.1378406 -0.057458851 -0.0044385148 255 255 255
-0.13172993 -0.057456732 -0.0045071635 255 255 255
-0.13771969 -0.056489509 -0.004502276 255 255 255
-0.13215327 -0.056201477 -0.0042654471 255 255 255
-0.13188769 -0.056508146 -0.0045712623 255 255 255
-0.13734221 -0.055623643 -0.0045451126 255 255 255
-0.13679674 -0.055125356 -0.0043782089 255 255 255
-0.13318738 -0.055057473 -0.0044592964 255 255 255
-0.13256624 -0.055586953 -0.0045291497 255 255 255
-0.13640495 -0.054795757 -0.0045431228 255 255 255
-0.13559362 -0.054489456 -0.0045226724 255 255 255
-0.1344973 -0.054464694 -0.0045633032 255 255 255
-0.13370904 -0.054751929 -0.0044860211 255 255 255
-0.14905049 0.0128732 -0.0047160867 255 255 255
-0.14851028 0.012560206 -0.0045321435 255 255 255
-0.14748663 0.012226906 -0.0044392245 255 255 255
-0.14643849 0.0122618 -0.0044880216 255 255 255
-0.14555757 0.0126786 -0.0045014964 255 255 255
-0.14943276 0.013397211 -0.004488654 255 255 255
-0.14504561 0.013133748 -0.0045822519 255 255 255
-0.14481126 0.013453332 -0.00453354 255 255 255
-0.15004668 0.01474377 -0.0045903702 255 255 255
-0.14988136 0.014230432 -0.004494403 255 255 255
-0.14453298 0.014491283 -0.004523254 255 255 255
-0.15006672 0.01550692 -0.0046959114 255 255 255
-0.14995258 0.015709883 -0.0042305761 255 255 255
-0.14506276 0.015914442 -0.0044093123 255 255 255
-0.14458574 0.015554992 -0.0044969264 255 255 255
-0.14390613 0.015810352 -0.004540476 255 255 255
-0.14980079 0.016577451 -0.0045078183 255 255 255
-0.14618316 0.016858025 -0.004425793 255 255 255
-0.14547423 0.016568623 -0.0046935701 255 255 255
-0.14428699 0.016650736 -0.0044400701 255 255 255
-0.14390832 0.01644462 -0.0045839506 255 255 255
-0.14927562 0.017325487 -0.0044894055 255 255 255
-0.14869998 0.017848203 -0.004457877 255 255 255
-0.14638425 0.017144404 -0.0047762925 255 255 255
-0.14527342 0.017850382 -0.004425812 255 255 255
-0.14452797 0.017447801 -0.0045347358 255 255 255
-0.14824556 0.018200675 -0.004632521 255 255 255
-0.14748396 0.018414577 -0.0045286948 255 255 255
-0.14648174 0.018463459 -0.004560939 255 255 255
-0.14563569 0.018263478 -0.0045550996 255 255 255
-0.13529567 -0.060117278 -0.0039265095 255 255 255
-0.13455509 -0.060139649 -0.0038856044 255 255 255
-0.13383812 -0.060080338 -0.0039652395 255 255 255
-0.13700183 -0.05902167 -0.0039652395 255 255 255
-0.13645016 -0.059301987 -0.0036434315 255 255 255
-0.13564107 -0.059607908 -0.0034342264 255 255 255
-0.13452664 -0.059722107 -0.0033172306 255 255 255
-0.13354665 -0.059488703 -0.0034746709 255 255 255
-0.13272716 -0.059230611 -0.0038024581 255 255 255
-0.13724697 -0.058448248 -0.0038203236 255 255 255
-0.13671932 -0.058579292 -0.0033182353 255 255 255
-0.13317247 -0.058649361 -0.0031055519 255 255 255
-0.13251276 -0.058485217 -0.0035580373 255 255 255
-0.13199164 -0.058162052 -0.0039662924 255 255 255
-0.13733 -0.057492439 -0.0035966905 255 255 255
-0.13685778 -0.057534479 -0.0030884629 255 255 255
-0.13249153 -0.057462353 -0.0033514968 255 255 255
-0.13198085 -0.057537578 -0.0039421176 255 255 255
-0.13726407 -0.056492142 -0.0036720077 255 255 255
-0.13675269 -0.056359027 -0.0031817474 255 255 255
-0.13312094 -0.056315433 -0.0031071922 255 255 255
-0.13253643 -0.056500316 -0.0035557728 255 255 255
-0.13709179 -0.055804767 -0.0038767564 255 255 255
-0.1364878 -0.055520643 -0.0035534946 255 255 255
-0.13562937 -0.055285823 -0.0033224246 255 255 255
-0.13452664 -0.055251841 -0.0032677071 255 255 255
-0.13352603 -0.055470988 -0.0034869264 255 255 255
-0.13273801 -0.055788644 -0.0038575837 255 255 255
-0.13625337 -0.05498277 -0.0039652395 255 255 255
-0.13548934 -0.054775074 -0.0038532452 255 255 255
-0.13450505 -0.054768406 -0.0038420546 255 255 255
-0.13383812 -0.054865871 -0.0039652395 255 255 255
-0.14834705 0.012758324 -0.003723908 255 255 255
-0.14750265 0.012629461 -0.0034261446 255 255 255
-0.14646614 0.012657712 -0.0034617633 255 255 255
-0.14572762 0.012770055 -0.0037344035 255 255 255
-0.14916649 0.013606383 -0.0036602395 255 255 255
-0.14860605 0.013312283 -0.003320225 255 255 255
-0.1452927 0.013289678 -0.0033861774 255 255 255
-0.1447784 0.013628655 -0.0036920598 255 255 255
-0.14950557 0.014408944 -0.0035260294 255 255 255
-0.14463662 0.0145002 -0.0035172151 255 255 255
-0.14972356 0.015541242 -0.0035526536 255 255 255
-0.14514451 0.015658619 -0.0038610927 255 255 255
-0.1444349 0.015522013 -0.003612461 255 255 255
-0.14931628 0.016414596 -0.003656564 255 255 255
-0.14858404 0.016711729 -0.0035123532 255 255 255
-0.14789876 0.01686612 -0.0036392349 255 255 255
-0.14513026 0.016660651 -0.0033235098 255 255 255
-0.14451742 0.016513618 -0.003531493 255 255 255
-0.14910123 0.017191274 -0.0038154291 255 255 255
-0.1484925 0.017523456 -0.0034931209 255 255 255
-0.14751822 0.017821921 -0.0033297532 255 255 255
-0.14648578 0.017811678 -0.0032675639 255 255 255
-0.14547101 0.017583083 -0.0035038688 255 255 255
-0.14473698 0.017224541 -0.0037986794 255 255 255
-0.14818771 0.018002434 -0.0039652395 255 255 255
-0.14734557 0.018200057 -0.0038816978 255 255 255
-0.14652635 0.018207302 -0.0038709086 255 255 255
-0.14577244 0.018075241 -0.0039652395 255 255 255
-0.13529932 -0.059111241 -0.0028701811 255 255 255
-0.13461536 -0.059129816 -0.0028651671 255 255 255
-0.1339802 -0.05902167 -0.0029055139 255 255 255
-0.13635737 -0.058316659 -0.0027723205 255 255 255
-0.13556094 -0.058501083 -0.0026265797 255 255 255
-0.13452831 -0.058476858 -0.002586615 255 255 255
-0.1336513 -0.05844615 -0.0028065087 255 255 255
-0.13647096 -0.057450492 -0.0026598999 255 255 255
-0.13553557 -0.057454895 -0.0022676524 255 255 255
-0.1345517 -0.057452466 -0.0023407049 255 255 255
-0.13356316 -0.057454374 -0.0026760104 255 255 255
-0.1363432 -0.056525793 -0.0027322259 255 255 255
-0.13553554 -0.056439187 -0.0024743001 255 255 255
-0.13451578 -0.056498945 -0.0025003741 255 255 255
-0.13364966 -0.056481581 -0.0027768817 255 255 255
-0.13545261 -0.055821192 -0.0028520918 255 255 255
-0.13454607 -0.055806153 -0.0028366274 255 255 255
-0.1339802 -0.055896033 -0.0029280146 255 255 255
-0.14834338 0.013680625 -0.0027794451 255 255 255
-0.14747396 0.013448591 -0.0026201957 255 255 255
-0.14651801 0.013431257 -0.0025945208 255 255 255
-0.1456968 0.013589085 -0.0027446686 255 255 255
-0.14913751 0.014698516 -0.002736554 255 255 255
-0.14852573 0.014382047 -0.002449116 255 255 255
-0.14754158 0.014124166 -0.0022132425 255 255 255
-0.14642103 0.014294312 -0.0021489249 255 255 255
-0.14547956 0.014425607 -0.0024679543 255 255 255
-0.14486024 0.014630109 -0.0028810492 255 255 255
-0.14920418 0.01556951 -0.0026895646 255 255 255
-0.14860086 0.01563411 -0.0022260875 255 255 255
-0.14619868 0.015567807 -0.0020471772 255 255 255
-0.14547254 0.015574335 -0.0023772595 255 255 255
-0.14482726 0.015567807 -0.0028804352 255 255 255
-0.14905818 0.016304336 -0.002807186 255 255 255
-0.14849305 0.016564444 -0.0025108764 255 255 255
-0.14751793 0.016653795 -0.002220267 255 255 255
-0.14641948 0.016599884 -0.0023184887 255 255 255
-0.14548965 0.016500937 -0.0026420357 255 255 255
-0.14833848 0.017137624 -0.0028210094 255 255 255
-0.14746934 0.017255927 -0.0026880966 255 255 255
-0.14651595 0.017295415 -0.0027597195 255 255 255
-0.1457684 0.017130543 -0.0028295447 255 255 255
0.039805513 0.11555924 -0.0025572241 255 255 255
0.040401615 0.11517352 -0.0024282855 255 255 255
0.041463111 0.11513259 -0.0021921566 255 255 255
0.038711391 0.1167964 -0.0021949909 255 255 255
0.039249212 0.11653488 -0.0025242302 255 255 255
0.043865968 0.11660333 -0.002284216 255 255 255
0.037930835 0.1177199 -0.0020701548 255 255 255
0.038507752 0.11740051 -0.0024707201 255 255 255
0.037931822 0.118413 -0.0022588829 255 255 255
0.037934601 0.11929194 -0.0021802536 255 255 255
0.038376544 0.1196232 -0.0025301529 255 255 255
0.04294299 0.11999311 -0.0022603234 255 255 255
0.03869769 0.12036127 -0.002407013 255 255 255
0.039199751 0.1207137 -0.002596142 255 255 255
0.041908938 0.12089045 -0.0022603234 255 255 255
0.042573158 0.12065528 -0.0023911884 255 255 255
0.039676148 0.12124351 -0.0024590716 255 255 255
0.04040277 0.12145665 -0.0025703055 255 255 255
0.041505996 0.12134515 -0.0026011746 255 255 255
-0.14816543 0.014857423 -0.0019862016 255 255 255
-0.14745344 0.014658677 -0.0019459196 255 255 255
-0.14660463 0.014835584 -0.0019702634 255 255 255
-0.14818628 0.01535428 -0.0019726609 255 255 255
-0.14752287 0.015613551 -0.0018640353 255 255 255
-0.14647727 0.015596449 -0.0019305012 255 255 255
-0.14727844 0.016250189 -0.0019785305 255 255 255
-0.14676698 0.016211225 -0.0019761731 255 255 255
0.038783286 0.11599292 -0.0011237373 255 255 255
0.039522141 0.11569813 -0.0014734413 255 255 255
0.040488202 0.11534676 -0.0014078876 255 255 255
0.041340645 0.1153378 -0.0014078876 255 255 255
0.042532049 0.11571908 -0.0014333538 255 255 255
0.037921533 0.11685558 -0.0012769511 255 255 255
0.038495418 0.11645278 -0.0015280942 255 255 255
0.03918669 0.11609475 -0.0018493234 255 255 255
0.042874087 0.116015 -0.0011237373 255 255 255
0.043380216 0.11654384 -0.0014186003 255 255 255
0.037716083 0.11745321 -0.0015172283 255 255 255
0.038191136 0.1171184 -0.0019761731 255 255 255
0.043689091 0.11736815 -0.001417006 255 255 255
0.037489962 0.11843026 -0.0015676505 255 255 255
0.043694638 0.11847411 -0.0015756001 255 255 255
0.037614632 0.11955368 -0.0015217188 255 255 255
0.038048763 0.11999311 -0.0019761731 255 255 255
0.042834822 0.11999311 -0.0019761731 255 255 255
0.043322984 0.11956143 -0.0015278144 255 255 255
0.037874356 0.12034184 -0.0012909037 255 255 255
0.038350489 0.12065346 -0.0016804753 255 255 255
0.041908938 0.12090985 -0.0019761731 255 255 255
0.04257318 0.12062495 -0.0016047624 255 255 255
0.043056469 0.12026282 -0.0012205055 255 255 255
0.038663503 0.12114428 -0.0013714663 255 255 255
0.039457493 0.12137369 -0.001556547 255 255 255
0.040488202 0.1215621 -0.0015499591 255 255 255
0.041477289 0.12132373 -0.0015419945 255 255 255
0.042162638 0.1211158 -0.0012459805 255 255 255
0.070039839 -0.10202245 -0.00027128658 255 255 255
0.067845941 -0.10107596 -0.00020936481 255 255 255
0.068505533 -0.10137609 -0.00044947347 255 255 255
0.069452837 -0.10178735 -0.00051431474 255 255 255
0.070445523 -0.10186554 -0.00052043219 255 255 255
0.071412981 -0.10150433 -0.00059424544 255 255 255
0.06772761 -0.10049467 -0.00036585896 255 255 255
0.07181222 -0.10078407 -0.00034232414 255 255 255
0.06775777 -0.098633811 -0.00059899286 255 255 255
0.07243143 -0.098453686 -0.00047297991 255 255 255
0.068051085 -0.097381994 -0.00055543683 255 255 255
0.070901737 -0.097084686 -0.0004133617 255 255 255
0.071528561 -0.097477779 -0.00057463354 255 255 255
0.07240738 -0.097571492 -0.00068376824 255 255 255
0.070396028 -0.09666355 -0.00047019377 255 255 255
0.038783286 0.11589161 -0.00055543683 255 255 255
0.039414808 0.11560833 -0.00062163291 255 255 255
0.040488202 0.11538483 -0.00055543683 255 255 255
0.041624792 0.11547828 -0.00044177673 255 255 255
0.042483207 0.11578665 -0.00052960502 255 255 255
0.037833381 0.11674245 -0.00052960502 255 255 255
0.03838959 0.11618164 -0.00055543688 255 255 255
0.042807758 0.116015 -0.00043275929 255 255 255
0.043297023 0.11654119 -0.00054910744 255 255 255
0.03743038 0.11746521 -0.00059934327 255 255 255
0.043677267 0.11733849 -0.0005557292 255 255 255
0.037201669 0.11843028 -0.00055543688 255 255 255
0.043795396 0.11843028 -0.00055543688 255 255 255
0.037336666 0.11960444 -0.00056236226 255 255 255
0.043575522 0.11958156 -0.00059267756 255 255 255
0.037771862 0.12051459 -0.00055085332 255 255 255
0.038143869 0.12091717 -0.00083958707 255 255 255
0.042794939 0.12081503 -0.00060589402 255 255 255
0.043186419 0.12037711 -0.00050504808 255 255 255
0.038554553 0.12128261 -0.00054773304 255 255 255
0.039526306 0.12164675 -0.00052407524 255 255 255
0.040486753 0.12172394 -0.00065268402 255 255 255
0.041481465 0.12157444 -0.00053418713 255 255 255
0.042348746 0.12118814 -0.00051723846 255 255 255
0.068624176 -0.10217131 0.00065447891 255 255 255
0.069491841 -0.10224276 0.00045400285 255 255 255
0.070436306 -0.10221058 0.00055448542 255 255 255
0.071176447 -0.10200186 0.00086532929 255 255 255
0.067538708 -0.10138715 0.00049366493 255 255 255
0.068374492 -0.10183181 0.00021335692 255 255 255
0.069187388 -0.10195281 1.286366e-05 255 255 255
0.070808291 -0.10191974 0.00016441841 255 255 255
0.071507156 -0.10154057 0.00042662461 255 255 255
0.072045445 -0.1011005 0.00069618621 255 255 255
0.066827655 -0.1004964 0.00071560463 255 255 255
0.06726969 -0.10057355 0.00017937465 255 255 255
0.071904965 -0.10079181 1.286366e-05 255 255 255
0.072231829 -0.10050236 0.00044957976 255 255 255
0.066777296 -0.099584199 0.00078017649 255 255 255
0.067280792 -0.099284247 0.00038417932 255 255 255
0.072452739 -0.09948165 0.00047163214 255 255 255
0.067528822 -0.09845522 0.00039625936 255 255 255
0.072286822 -0.098487034 0.0004554484 255 255 255
0.067769587 -0.097909659 0.00038448744 255 255 255
0.068198808 -0.097221524 0.00029702135 255 255 255
0.071559533 -0.097421892 0.00039528168 255 255 255
0.072060727 -0.09790802 0.00059747347 255 255 255
0.068781838 -0.096753024 0.00029702135 255 255 255
0.069471538 -0.096550308 0.00029702135 255 255 255
0.070489429 -0.096659981 0.00045564715 255 255 255
0.071128689 -0.096902966 0.00077061256 255 255 255
0.038783286 0.11596128 0.00015493878 255 255 255
0.039509647 0.1157133 0.00042895362 255 255 255
0.040582918 0.11561447 0.00065090903 255 255 255
0.041591812 0.1156524 0.00054816937 255 255 255
0.04226695 0.11579238 0.00029255182 255 255 255
0.037899528 0.11679696 0.00037387741 255 255 255
0.038427182 0.11632398 0.00050465588 255 255 255
0.039065685 0.1160141 0.00086749491 255 255 255
0.042648401 0.11616236 0.00057950476 255 255 255
0.043192413 0.11664184 0.00036358807 255 255 255
0.037534919 0.11743876 0.0004301577 255 255 255
0.043545496 0.11742768 0.00046191394 255 255 255
0.037306875 0.11843028 0.00050167751 255 255 255
0.043689579 0.11843844 0.00053506542 255 255 255
0.037422135 0.11958075 0.00045359458 255 255 255
0.043561965 0.11956107 0.00049545377 255 255 255
0.037785795 0.1204299 0.00038774702 255 255 255
0.038155455 0.12082794 0.00056483905 255 255 255
0.042770557 0.12084925 0.00054003956 255 255 255
0.043180868 0.12041363 0.00038379821 255 255 255
0.038615897 0.12123679 0.00037635589 255 255 255
0.039470494 0.12163118 0.00046110537 255 255 255
0.040488198 0.12173092 0.00049851328 255 255 255
0.041486282 0.12158368 0.00047701321 255 255 255
0.042321969 0.12121352 0.0004132608 255 255 255
0.068497479 -0.10229687 0.0014966594 255 255 255
0.069443315 -0.10252354 0.0013963412 255 255 255
0.070436075 -0.1024842 0.0013857174 255 255 255
0.071218044 -0.10216651 0.0014224985 255 255 255
0.066921897 -0.10106469 0.0014336297 255 255 255
0.067463838 -0.10163655 0.0013914325 255 255 255
0.071700677 -0.10172271 0.0014467026 255 255 255
0.07207191 -0.10126148 0.0015065038 255 255 255
0.066617027 -0.10052406 0.0014070781 255 255 255
0.072451718 -0.10051615 0.0014122279 255 255 255
0.066488765 -0.099457338 0.0013995635 255 255 255
0.072653279 -0.099545911 0.0014068523 255 255 255
0.066694014 -0.09874209 0.0017463381 255 255 255
0.06716577 -0.098313749 0.0013389131 255 255 255
0.072508276 -0.098510787 0.0014286035 255 255 255
0.067608729 -0.097522564 0.0015016287 255 255 255
0.071621418 -0.097200468 0.0014006316 255 255 255
0.072106488 -0.097736843 0.0014013448 255 255 255
0.068536237 -0.096640684 0.0014274149 255 255 255
0.069471538 -0.096402615 0.0014336297 255 255 255
0.070484385 -0.096521147 0.0014336297 255 255 255
0.071170472 -0.096817493 0.0014533197 255 255 255
0.039777812 0.11589581 0.0011494795 255 255 255
0.04065869 0.1158243 0.0012422542 255 255 255
0.041372217 0.11584257 0.001224568 255 255 255
0.038562521 0.11664914 0.0013723668 255 255 255
0.039421801 0.11625052 0.0015264024 255 255 255
0.040488202 0.11610086 0.0017222503 255 255 255
0.041570667 0.11618734 0.0016708226 255 255 255
0.042474151 0.11654532 0.0014038143 255 255 255
0.043045539 0.11690672 0.0011099319 255 255 255
0.037842534 0.11749167 0.0012733738 255 255 255
0.03825409 0.11730254 0.0016814062 255 255 255
0.042779647 0.11723159 0.0017449852 255 255 255
0.043172274 0.11751252 0.0013749372 255 255 255
0.03773696 0.11841057 0.0015137582 255 255 255
0.043258626 0.11844967 0.0014941454 255 255 255
0.037787106 0.11955201 0.0014454186 255 255 255
0.03820755 0.11989838 0.0018111607 255 255 255
0.042838331 0.11987944 0.0017063776 255 255 255
0.043187119 0.11949431 0.0013998793 255 255 255
0.037947342 0.12025625 0.0011226226 255 255 255
0.038457874 0.12056615 0.0014777033 255 255 255
0.039121732 0.1208539 0.0017824064 255 255 255
0.041811254 0.12088196 0.0017624656 255 255 255
0.042516861 0.12056346 0.0014750536 255 255 255
0.043030545 0.12025157 0.0011263976 255 255 255
0.038791627 0.12112387 0.0011374692 255 255 255
0.039521646 0.12124798 0.0014215512 255 255 255
0.040488202 0.12133069 0.0015022694 255 255 255
0.041417073 0.12123916 0.001409231 255 255 255
0.042126577 0.121085 0.0011494795 255 255 255
0.068620853 -0.10223077 0.0023524875 255 255 255
0.069436431 -0.10241445 0.0025100233 255 255 255
0.070413142 -0.10231098 0.002411793 255 255 255
0.071094379 -0.10215832 0.0020019303 255 255 255
0.066949524 -0.10106352 0.0020966472 255 255 255
0.067479059 -0.10148491 0.0024384246 255 255 255
0.068164825 -0.10191043 0.0026662874 255 255 255
0.070879884 -0.10192155 0.0028419038 255 255 255
0.071536645 -0.10163631 0.0024492203 255 255 255
0.072072454 -0.10113057 0.0023310841 255 255 255
0.066752136 -0.10050323 0.0024188966 255 255 255
0.067044921 -0.10079181 0.0028543661 255 255 255
0.072293788 -0.10054361 0.0024825465 255 255 255
0.066551775 -0.099497885 0.0025395134 255 255 255
0.072487757 -0.099530995 0.0024410239 255 255 255
0.06675598 -0.098544098 0.0024668954 255 255 255
0.072321959 -0.098488614 0.0024719974 255 255 255
0.067542449 -0.097563058 0.002540247 255 255 255
0.068107709 -0.097084321 0.0026585904 255 255 255
0.070899852 -0.097094774 0.0028588763 255 255 255
0.071566202 -0.097373888 0.0024766068 255 255 255
0.072074197 -0.097823329 0.0022748797 255 255 255
0.068610802 -0.096750654 0.0023706169 255 255 255
0.069496617 -0.096627533 0.0024789958 255 255 255
0.070447855 -0.096718758 0.0023983731 255 255 255
0.071144231 -0.096877754 0.0020966472 255 255 255
0.039549459 0.11673342 0.0021298209 255 255 255
0.040555131 0.11657008 0.0022432173 255 255 255
0.041461252 0.11666706 0.0021891764 255 255 255
0.042192619 0.11686782 0.0020016225 255 255 255
0.038608413 0.11752021 0.0021354279 255 255 255
0.039494283 0.11743947 0.0025718703 255 255 255
0.040466346 0.11744265 0.0027806398 255 255 255
0.041493338 0.11743044 0.0026325681 255 255 255
0.042435873 0.11747531 0.0021845747 255 255 255
0.037978608 0.1188565 0.0020019303 255 255 255
0.038490381 0.1184142 0.0023492451 255 255 255
0.039456956 0.1184228 0.0028461337 255 255 255
0.040488202 0.11800405 0.0029746683 255 255 255
0.041497502 0.11843027 0.0028592015 255 255 255
0.042492066 0.11844284 0.0023431422 255 255 255
0.038519338 0.11952322 0.002270526 255 255 255
0.039474048 0.11958563 0.0027232675 255 255 255
0.040471718 0.11963838 0.00286603 255 255 255
0.041491177 0.11957856 0.0027198864 255 255 255
0.042439491 0.11952175 0.0022357488 255 255 255
0.038683023 0.12025173 0.0020265209 255 255 255
0.039523687 0.12052617 0.0022476986 255 255 255
0.040511705 0.12057149 0.0023607269 255 255 255
0.041457731 0.12052589 0.0022273476 255 255 255
0.042269066 0.12021983 0.0020051079 255 255 255
0.040488202 0.1210088 0.0020019303 255 255 255
0.069471538 -0.10207921 0.0031385163 255 255 255
0.070039839 -0.10205667 0.0031385163 255 255 255
0.067653731 -0.1011881 0.0032526394 255 255 255
0.068466067 -0.10150161 0.0035078274 255 255 255
0.069473684 -0.10162608 0.0036869764 255 255 255
0.070478551 -0.10154809 0.0035483509 255 255 255
0.071312331 -0.1012916 0.0032777826 255 255 255
0.066914178 -0.10016038 0.0030723999 255 255 255
0.067441918 -0.10052227 0.0035424074 255 255 255
0.068144716 -0.10080164 0.0039754068 255 255 255
0.070814289 -0.10083601 0.0039871749 255 255 255
0.071519017 -0.100573 0.0035890229 255 255 255
0.072043002 -0.10032343 0.003129639 255 255 255
0.06687133 -0.099453762 0.0033227073 255 255 255
0.067327179 -0.099524178 0.0038243928 255 255 255
0.071650542 -0.099513113 0.0037412629 255 255 255
0.072103754 -0.099513113 0.0032452403 255 255 255
0.06690111 -0.09865132 0.0032266395 255 255 255
0.067430824 -0.098447748 0.0036380747 255 255 255
0.068166688 -0.098251082 0.0039719795 255 255 255
0.070810698 -0.098217674 0.003987961 255 255 255
0.071510434 -0.098462157 0.0036253536 255 255 255
0.072039299 -0.098645784 0.0031502764 255 255 255
0.067719966 -0.097782992 0.0033094154 255 255 255
0.0684902 -0.097492315 0.0035361205 255 255 255
0.069471546 -0.097429954 0.0036636028 255 255 255
0.070443287 -0.097503014 0.0035270667 255 255 255
0.071317658 -0.097755507 0.0032896402 255 255 255
0.069471538 -0.096958481 0.0031385163 255 255 255
0.039919887 0.11857234 0.003005449 255 255 255
0.040488198 0.11857235 0.0030349831 255 255 255
0.040488202 0.11914064 0.0030005018 255 255 255
0.06876117 -0.10107596 0.00405803 255 255 255
0.069471538 -0.10107597 0.0041672182 255 255 255
0.070181914 -0.10107596 0.0041020405 255 255 255
0.067766644 -0.1002235 0.0040118289 255 255 255
0.068540432 -0.10050247 0.0042727641 255 255 255
0.069505505 -0.10048364 0.0044489251 255 255 255
0.070399232 -0.10049178 0.0043043252 255 255 255
0.071176447 -0.1002235 0.0040403944 255 255 255
0.067776792 -0.099371038 0.0041598422 255 255 255
0.06849353 -0.09954609 0.0044723465 255 255 255
0.069503829 -0.099480338 0.0046118158 255 255 255
0.070509717 -0.099525861 0.0044195699 255 255 255
0.071176447 -0.099513128 0.0041255546 255 255 255
0.067766644 -0.098802745 0.0040876758 255 255 255
0.068523683 -0.098605886 0.004270135 255 255 255
0.069471531 -0.098546311 0.004400562 255 255 255
0.070429511 -0.098548561 0.0042602797 255 255 255
0.071176447 -0.098802745 0.0040400368 255 255 255
0.068903238 -0.09795028 0.00405388 255 255 255
0.069471538 -0.09795028 0.0040848744 255 255 255
0.070039839 -0.09795028 0.0040315581 255 255 255
0.014694387 0.0014854326 0.065536395 255 255 255
0.015023206 0.0029230835 0.065793708 255 255 255
0.015767103 -0.0010549901 0.066972308 255 255 255
0.016538382 -0.0010502728 0.066801749 255 255 255
0.017187854 -0.0010549901 0.066866554 255 255 255
0.014914651 -0.00012289264 0.066597797 255 255 255
0.015537481 -0.00056880346 0.066632226 255 255 255
0.016360881 -0.00080805551 0.066540137 255 255 255
0.017495515 -0.00080772873 0.066478603 255 255 255
0.018648665 -0.00036032524 0.066490032 255 255 255
0.013959606 0.00093407655 0.066788234 255 255 255
0.0144409 0.00054795883 0.066403456 255 255 255
0.018907862 5.8201171e-05 0.066646159 255 255 255
0.019339552 0.00054238574 0.066359147 255 255 255
0.013881588 0.0015835542 0.066760987 255 255 255
0.014156867 0.0014803357 0.06629508 255 255 255
0.019392943 0.0015299362 0.066379257 255 255 255
0.013894503 0.0021653792 0.066855609 255 255 255
0.014336937 0.002472637 0.066470183 255 255 255
0.018770859 0.0026348578 0.066501848 255 255 255
0.019338192 0.0023816579 0.066315062 255 255 255
0.014695956 0.0034403249 0.066670403 255 255 255
0.015300808 0.0038334697 0.066517673 255 255 255
0.017639477 0.0038555807 0.066341713 255 255 255
0.018378897 0.0034770817 0.0664519 255 255 255
0.015561514 0.0041321372 0.066730171 255 255 255
0.016528944 0.0042260243 0.066542782 255 255 255
0.017405193 0.0041067805 0.066717602 255 255 255
0.014898209 -0.0010672448 0.067755789 255 255 255
0.015503097 -0.0012512354 0.067516059 255 255 255
0.01647749 -0.0014197321 0.067437932 255 255 255
0.017526086 -0.0013008015 0.067472324 255 255 255
0.018190086 -0.0010956345 0.067643635 255 255 255
0.014468845 -0.00047455696 0.067507103 255 255 255
0.015264959 -0.00082517689 0.067068703 255 255 255
0.018644558 -0.00057903508 0.067389898 255 255 255
0.019141581 -0.00023420433 0.067820482 255 255 255
0.013711507 0.00060270802 0.067647927 255 255 255
0.014064942 0.00037055931 0.067072384 255 255 255
0.019363085 0.00048742225 0.067478538 255 255 255
0.013555612 0.0014546714 0.067466997 255 255 255
0.019518834 0.0015023669 0.067442112 255 255 255
0.01362951 0.0025087651 0.067460187 255 255 255
0.019376416 0.0025307562 0.067462072 255 255 255
0.013862461 0.003228562 0.067735389 255 255 255
0.014271516 0.0035886751 0.067409836 255 255 255
0.018704025 0.0036144324 0.067385972 255 255 255
0.019139042 0.0032482478 0.067738436 255 255 255
0.014789353 0.0041316999 0.067555316 255 255 255
0.015459634 0.0044779438 0.067502916 255 255 255
0.01647749 0.0046373671 0.067482233 255 255 255
0.017478637 0.0044563944 0.067494124 255 255 255
0.018166974 0.0041556642 0.067569539 255 255 255
0.014902435 -0.0010641649 0.068523653 255 255 255
0.01543457 -0.0013954047 0.068493128 255 255 255
0.016487341 -0.0016120138 0.068438962 255 255 255
0.017589804 -0.0014354718 0.068520844 255 255 255
0.018258046 -0.0011335968 0.068528093 255 255 255
0.013958064 -0.00020255425 0.068351053 255 255 255
0.014337291 -0.00057035463 0.068560272 255 255 255
0.018753344 -0.00077076862 0.068493135 255 255 255
0.019156717 -0.00033250562 0.068493135 255 255 255
0.013614093 0.00045563007 0.068498842 255 255 255
0.019522162 0.00044929332 0.068520777 255 255 255
0.013350052 0.0015023671 0.068493128 255 255 255
0.019673172 0.0015023671 0.068493135 255 255 255
0.013484574 0.002531491 0.0684634 255 255 255
0.01951959 0.0025619869 0.06852027 255 255 255
0.013830855 0.0032839375 0.068490013 255 255 255
0.0142033 0.0037722439 0.068493128 255 255 255
0.018787043 0.0038322359 0.068493135 255 255 255
0.019185504 0.0033624587 0.068493135 255 255 255
0.014761722 0.0042458395 0.068487242 255 255 255
0.015507287 0.0046165832 0.068529181 255 255 255
0.016477488 0.0047756075 0.068493128 255 255 255
0.017446784 0.0046212515 0.068509936 255 255 255
0.018237906 0.0042612138 0.068531446 255 255 255
0.015506357 -0.0011878731 0.069413252 255 255 255
0.016497787 -0.0013204199 0.069512419 255 255 255
0.017412415 -0.0012163948 0.069449671 255 255 255
0.018065814 -0.0010702728 0.069224395 255 255 255
0.014573114 -0.00046863436 0.069466315 255 255 255
0.015257175 -0.0008433339 0.06985531 255 255 255
0.017736169 -0.00088431221 0.069842853 255 255 255
0.018544134 -0.00055782666 0.06952522 255 255 255
0.019135116 -0.00019907483 0.069125146 255 255 255
0.013785474 0.00058092375 0.069414109 255 255 255
0.014171125 0.00020106853 0.069794916 255 255 255
0.018910339 0.00016720316 0.069900967 255 255 255
0.019299552 0.0005560639 0.06946525 255 255 255
0.013608538 0.0014787104 0.069488026 255 255 255
0.019439129 0.0014846071 0.069523998 255 255 255
0.01369846 0.0024677084 0.069443278 255 255 255
0.01406987 0.0029089274 0.069901675 255 255 255
0.018912917 0.0029230835 0.069942124 255 255 255
0.019311048 0.0024514194 0.069505095 255 255 255
0.013866941 0.0031584722 0.069156148 255 255 255
0.014406924 0.0035851183 0.069532469 255 255 255
0.018654257 0.0035732137 0.069576047 255 255 255
0.01917007 0.0031900823 0.069199614 255 255 255
0.014774 0.0040986952 0.069205895 255 255 255
0.015438241 0.0043123257 0.069492504 255 255 255
0.01647749 0.0044949683 0.069497012 255 255 255
0.017495219 0.0043422212 0.069523625 255 255 255
0.018181978 0.004137102 0.06932272 255 255 255
0.016335413 -0.0010549901 0.070037246 255 255 255
0.014889091 -0.00022705174 0.070223771 255 255 255
0.015493214 -0.00045298031 0.070449948 255 255 255
0.016477492 -0.00055876648 0.070551053 255 255 255
0.017450001 -0.00046463727 0.070391715 255 255 255
0.018164556 -0.0002416166 0.070246972 255 255 255
0.014570583 0.00054006872 0.070477359 255 255 255
0.015351649 0.00013794721 0.070836671 255 255 255
0.016903719 8.1610895e-05 0.070966549 255 255 255
0.017622177 0.00029521497 0.070816092 255 255 255
0.018480351 0.00053031271 0.070450403 255 255 255
0.013976228 0.0016444447 0.070198037 255 255 255
0.014319152 0.0014577048 0.070554107 255 255 255
0.018476589 0.0015023667 0.070627771 255 255 255
0.019093579 0.0015591981 0.070121616 255 255 255
0.014441341 0.0025184229 0.07050506 255 255 255
0.015103136 0.0029230835 0.070826262 255 255 255
0.017739208 0.0026389481 0.070924833 255 255 255
0.018487941 0.0024954935 0.070528165 255 255 255
0.019014632 0.0020706775 0.070198037 255 255 255
0.014735917 0.0033338943 0.070261471 255 255 255
0.015457169 0.0035379461 0.070563883 255 255 255
0.016502561 0.0036455665 0.070679791 255 255 255
0.017492535 0.0035342479 0.07055825 255 255 255
0.018268159 0.003352958 0.070295803 255 255 255
0.01570926 0.0040561454 0.070149623 255 255 255
0.01647749 0.0040865992 0.070232727 255 255 255
0.017252577 0.0040581645 0.070165031 255 255 255
0.015502704 0.00066827895 0.071137369 255 255 255
0.01644532 0.00048120596 0.071216874 255 255 255
0.017315928 0.00067301415 0.071062215 255 255 255
0.014914885 0.0015385868 0.071050018 255 255 255
0.015503888 0.0015023671 0.071306445 255 255 255
0.016587578 0.0014970533 0.071399137 255 255 255
0.017563229 0.0014626057 0.071097203 255 255 255
0.014936012 0.0020706775 0.071038298 255 255 255
0.015496935 0.0024778314 0.071173087 255 255 255
0.016498789 0.0024837186 0.07131575 255 255 255
0.017362343 0.0024494578 0.071125038 255 255 255
0.015767103 0.0030665221 0.071050487 255 255 255
0.0164166 0.0031764072 0.071037978 255 255 255
0.017187854 0.0030054869 0.071050487 255 255 255
0 0 0 1 0 0 0 1 0 0 0 1 0 0 0 0 0 769 1 0 0
