ply
format ascii 1.0
comment PCL generated
element vertex 129
property float x
property float y
property float z
property uchar red
property uchar green
property uchar blue
element camera 1
property float view_px
property float view_py
property float view_pz
property float x_axisx
property float x_axisy
property float x_axisz
property float y_axisx
property float y_axisy
property float y_axisz
property float z_axisx
property float z_axisy
property float z_axisz
property float focal
property float scalex
property float scaley
property float centerx
property float centery
property int viewportx
property int viewporty
property float k1
property float k2
end_header
0.0026649607 0.010700926 0.0087734433 255 255 255
0.0064382982 0.010629619 0.0088579031 255 255 255
0.0027357859 0.011173293 0.0089076729 255 255 255
0.0032577934 0.011599625 0.0087967394 255 255 255
0.0048320494 0.011973977 0.0088486494 255 255 255
0.0055685258 0.011584088 0.0087756002 255 255 255
0.0060965051 0.0112251 0.0088160513 255 255 255
0.00377826 0.012041196 0.0088876756 255 255 255
0.0045838892 0.012132332 0.0089730443 255 255 255
0.0052099149 0.012015775 0.0089656385 255 255 255
0.0059420946 0.0076860636 0.0097665014 255 255 255
0.0062622274 0.0079444796 0.0098316344 255 255 255
0.006612076 0.0086020678 0.0094993161 255 255 255
0.0068463259 0.009457618 0.0092713879 255 255 255
0.0072188722 0.0094872508 0.0097540412 255 255 255
0.0019120311 0.010838032 0.0096839638 255 255 255
0.0022071504 0.010610133 0.0091316225 255 255 255
0.0067878822 0.010576107 0.0091482149 255 255 255
0.0071748667 0.010403554 0.0096456455 255 255 255
0.0019983088 0.011139199 0.0097191604 255 255 255
0.0024262916 0.011553141 0.0094754528 255 255 255
0.0030923334 0.011917636 0.0090702446 255 255 255
0.0058466685 0.011922364 0.0091768578 255 255 255
0.0065483232 0.011555353 0.0094838645 255 255 255
0.0071107429 0.011129553 0.009905207 255 255 255
0.0028061988 0.012225881 0.0098147569 255 255 255
0.0035784468 0.012390953 0.009483383 255 255 255
0.0044950289 0.012539812 0.0094652595 255 255 255
0.0054564239 0.01243238 0.0095505975 255 255 255
0.0062051257 0.012190888 0.0097496184 255 255 255
0.0058219968 0.0072973445 0.010553 255 255 255
0.0063571362 0.0077361697 0.01045768 255 255 255
0.0068879244 0.0080948919 0.010649361 255 255 255
0.0071847131 0.0085348263 0.010495254 255 255 255
0.0075375149 0.0095474776 0.010495896 255 255 255
0.0015036057 0.010739771 0.01059716 255 255 255
0.0074817035 0.010590357 0.010435113 255 255 255
0.0017741275 0.011443726 0.010554819 255 255 255
0.0021030118 0.011832421 0.010225284 255 255 255
0.0068438728 0.011828656 0.01027398 255 255 255
0.0071900687 0.011483293 0.010605505 255 255 255
0.0025379434 0.012325768 0.010535182 255 255 255
0.003466605 0.0127873 0.010403345 255 255 255
0.004383618 0.012954715 0.010178355 255 255 255
0.0055942754 0.012828729 0.010396858 255 255 255
0.0063928673 0.012392541 0.010532993 255 255 255
0.0038234363 0.013043359 0.010922772 255 255 255
0.0045720357 0.01309207 0.010601199 255 255 255
0.0052446132 0.013048865 0.010743399 255 255 255
0.0057105557 0.0071875453 0.011317407 255 255 255
0.0065029585 0.0076720589 0.011434087 255 255 255
0.0069526318 0.0080598891 0.011639756 255 255 255
0.007341959 0.0085606063 0.011515814 255 255 255
0.0013415128 0.0098438114 0.011456686 255 255 255
0.0076493677 0.0095431246 0.011496404 255 255 255
0.0013958091 0.010520458 0.011401244 255 255 255
0.007626947 0.010466704 0.011534243 255 255 255
0.0017306282 0.011534642 0.011560225 255 255 255
0.0020148118 0.011969879 0.011073408 255 255 255
0.0069807428 0.011960283 0.011441049 255 255 255
0.0073206113 0.011440666 0.011483553 255 255 255
0.0024307792 0.012371956 0.011477327 255 255 255
0.0032229775 0.012871456 0.011520133 255 255 255
0.0057653547 0.012923323 0.011582056 255 255 255
0.006429947 0.012477296 0.011531411 255 255 255
0.0037900601 0.013045952 0.011450318 255 255 255
0.0044979746 0.013143548 0.011512598 255 255 255
0.0052882587 0.01310483 0.011415446 255 255 255
0.0055363467 0.0074103745 0.01262298 255 255 255
0.0064389338 0.0077595115 0.012412334 255 255 255
0.0018723902 0.0089365095 0.012793836 255 255 255
0.0068396246 0.0082183164 0.012575488 255 255 255
0.0072059496 0.0087408042 0.012496951 255 255 255
0.0015801833 0.0095524592 0.012508786 255 255 255
0.0074263848 0.0095712738 0.012495454 255 255 255
0.0015829657 0.010564107 0.01249944 255 255 255
0.0073843971 0.010516014 0.012563546 255 255 255
0.0018295031 0.011290863 0.012444954 255 255 255
0.0021576516 0.011679411 0.012675656 255 255 255
0.0067893793 0.011730809 0.012700917 255 255 255
0.0071747275 0.011356259 0.012374766 255 255 255
0.001995798 0.012028053 0.012077806 255 255 255
0.0026143263 0.012308472 0.012467608 255 255 255
0.0035222843 0.012769761 0.012545778 255 255 255
0.0044237464 0.012876913 0.012609178 255 255 255
0.0055132834 0.012737286 0.012542346 255 255 255
0.0063880756 0.012315644 0.012372809 255 255 255
0.0047003543 0.013034193 0.01231427 255 255 255
0.0051404047 0.013056859 0.012078596 255 255 255
0.0047796909 0.0077774376 0.013434209 255 255 255
0.0054588499 0.0077848681 0.013270832 255 255 255
0.0060549672 0.007951811 0.013148216 255 255 255
0.002519795 0.0086077107 0.013419076 255 255 255
0.0040252837 0.0082441121 0.013959524 255 255 255
0.0055891345 0.0083015338 0.013714598 255 255 255
0.0064556994 0.0085910112 0.013403599 255 255 255
0.0018841882 0.0095299333 0.013151345 255 255 255
0.0023245707 0.0095230415 0.0136964 255 255 255
0.0066282437 0.0094184168 0.013639584 255 255 255
0.007092522 0.0095709469 0.013156042 255 255 255
0.0018780861 0.010346562 0.013196565 255 255 255
0.0023593663 0.010585551 0.013677332 255 255 255
0.0066718333 0.010512294 0.013598704 255 255 255
0.0070844977 0.010473184 0.013110821 255 255 255
0.002681023 0.011483232 0.013454212 255 255 255
0.0033834914 0.011690052 0.013821789 255 255 255
0.004400623 0.011877778 0.013877532 255 255 255
0.0056400383 0.011646727 0.013794832 255 255 255
0.0064569246 0.011452151 0.013370431 255 255 255
0.0035764833 0.012240555 0.013346408 255 255 255
0.004508663 0.01234438 0.013471431 255 255 255
0.0054098754 0.012329894 0.01328059 255 255 255
0.0060924436 0.012113348 0.013117504 255 255 255
0.0032679597 0.0089728488 0.014114854 255 255 255
0.0046159821 0.0087370127 0.014241232 255 255 255
0.0055025867 0.0087881535 0.014107294 255 255 255
0.0027572175 0.0097063035 0.014098671 255 255 255
0.0035493865 0.0096141519 0.014341229 255 255 255
0.0045063454 0.0095554814 0.014508346 255 255 255
0.0054545878 0.0095274299 0.014351262 255 255 255
0.006161653 0.0096965805 0.014090043 255 255 255
0.0028577377 0.010477659 0.014080217 255 255 255
0.0035289933 0.010630797 0.014317227 255 255 255
0.0044945842 0.010558791 0.014479924 255 255 255
0.0055030128 0.010478241 0.014336072 255 255 255
0.0061359862 0.010415968 0.014057949 255 255 255
0.0036173633 0.011325662 0.014126607 255 255 255
0.0044812304 0.011455674 0.014195785 255 255 255
0.0053783464 0.011270598 0.014131582 255 255 255
0 0 0 1 0 0 0 1 0 0 0 1 0 0 0 0 0 129 1 0 0
