ply
format ascii 1.0
comment PCL generated
element vertex 109
property float x
property float y
property float z
property uchar red
property uchar green
property uchar blue
element camera 1
property float view_px
property float view_py
property float view_pz
property float x_axisx
property float x_axisy
property float x_axisz
property float y_axisx
property float y_axisy
property float y_axisz
property float z_axisx
property float z_axisy
property float z_axisz
property float focal
property float scalex
property float scaley
property float centerx
property float centery
property int viewportx
property int viewporty
property float k1
property float k2
end_header
0.042646974 0.03271905 -0.064158238 255 255 255
0.043182671 0.032761201 -0.064047813 255 255 255
0.041873559 0.033270985 -0.064382724 255 255 255
0.04252857 0.033515859 -0.064443208 255 255 255
0.043446541 0.033566024 -0.064230591 255 255 255
0.042534832 0.034418102 -0.064488426 255 255 255
0.043455523 0.034502979 -0.064252742 255 255 255
0.041477136 0.035479903 -0.06406787 255 255 255
0.042730872 0.035450798 -0.064153776 255 255 255
0.043369833 0.035290148 -0.064083487 255 255 255
0.042649917 0.032280952 -0.063862406 255 255 255
0.043543164 0.032551222 -0.063714832 255 255 255
0.044268358 0.03269957 -0.063270032 255 255 255
0.043920007 0.033482119 -0.063942902 255 255 255
0.044448067 0.033485599 -0.063480437 255 255 255
0.043945223 0.034660682 -0.06396547 255 255 255
0.044485044 0.034483168 -0.063498333 255 255 255
0.040472403 0.035758208 -0.063400358 255 255 255
0.041347407 0.035767063 -0.063876405 255 255 255
0.042535786 0.035962023 -0.063895151 255 255 255
0.04368465 0.035646841 -0.063707285 255 255 255
0.044371754 0.035384223 -0.063304029 255 255 255
0.040713672 0.036296647 -0.063137628 255 255 255
0.04147651 0.036418095 -0.063385241 255 255 255
0.042534973 0.036450241 -0.063435577 255 255 255
0.043361839 0.036301196 -0.063348219 255 255 255
0.044786852 0.032725666 -0.062453128 255 255 255
0.04491489 0.033392515 -0.062818155 255 255 255
0.045127537 0.03358411 -0.062397063 255 255 255
0.04493935 0.034759853 -0.062850848 255 255 255
0.045152832 0.034495756 -0.062445641 255 255 255
0.039689116 0.035655271 -0.062593654 255 255 255
0.044746563 0.035586569 -0.062563889 255 255 255
0.04511831 0.035128966 -0.062148575 255 255 255
0.039890472 0.036218647 -0.0621829 255 255 255
0.040485222 0.036564 -0.062454142 255 255 255
0.041337077 0.036888808 -0.062674887 255 255 255
0.042388346 0.036900885 -0.062868826 255 255 255
0.04357069 0.036707696 -0.062515371 255 255 255
0.044310372 0.036250401 -0.062433343 255 255 255
0.041632865 0.037116975 -0.062303383 255 255 255
0.04245434 0.037142534 -0.06230155 255 255 255
0.043079246 0.037056357 -0.062264774 255 255 255
0.045099497 0.032764003 -0.061034892 255 255 255
0.045279466 0.033572976 -0.061428733 255 255 255
0.045314316 0.034501269 -0.06143314 255 255 255
0.039405234 0.035732277 -0.061375968 255 255 255
0.044869728 0.035830889 -0.061567973 255 255 255
0.045139942 0.035275023 -0.061594196 255 255 255
0.039774209 0.036288422 -0.061503541 255 255 255
0.040340405 0.036789287 -0.061548293 255 255 255
0.04371782 0.036892984 -0.061487731 255 255 255
0.044411775 0.036392469 -0.061506655 255 255 255
0.040840045 0.037073318 -0.061515529 255 255 255
0.041525941 0.037239231 -0.061489899 255 255 255
0.04250085 0.03727781 -0.061460909 255 255 255
0.043259297 0.037099428 -0.061558023 255 255 255
0.04476463 0.032534558 -0.060322817 255 255 255
0.045067549 0.032785043 -0.060785133 255 255 255
0.044981625 0.033103153 -0.060220364 255 255 255
0.045212124 0.033522073 -0.06055554 255 255 255
0.045240164 0.034476537 -0.060476404 255 255 255
0.039667767 0.035876218 -0.060427006 255 255 255
0.044831071 0.035589043 -0.060355164 255 255 255
0.04509297 0.035175826 -0.060546286 255 255 255
0.039811015 0.036174353 -0.060622662 255 255 255
0.040387049 0.036640503 -0.060534578 255 255 255
0.041296907 0.036945157 -0.060168426 255 255 255
0.042914949 0.03694661 -0.060019959 255 255 255
0.043614134 0.036790028 -0.060451467 255 255 255
0.044296537 0.03633957 -0.060559973 255 255 255
0.040803038 0.03708221 -0.060890403 255 255 255
0.041516408 0.037180878 -0.06063005 255 255 255
0.042478114 0.037149996 -0.060441416 255 255 255
0.043140076 0.037088148 -0.060709633 255 255 255
0.042979348 0.031896576 -0.059198681 255 255 255
0.043629009 0.031816002 -0.059694979 255 255 255
0.044105534 0.031967774 -0.059979577 255 255 255
0.043729924 0.032303281 -0.059235603 255 255 255
0.044358414 0.03264745 -0.05953373 255 255 255
0.044678275 0.033490509 -0.059452098 255 255 255
0.045021068 0.033716902 -0.059843767 255 255 255
0.044714477 0.034590159 -0.059375968 255 255 255
0.045074854 0.034412116 -0.059889179 255 255 255
0.039835151 0.035594299 -0.059812013 255 255 255
0.040312219 0.035737339 -0.059367511 255 255 255
0.043816984 0.035839841 -0.059110556 255 255 255
0.044474773 0.035514049 -0.059561498 255 255 255
0.040592756 0.036260553 -0.059671767 255 255 255
0.041506458 0.036534354 -0.059445381 255 255 255
0.042480573 0.036622956 -0.059427664 255 255 255
0.043411739 0.036458321 -0.059539117 255 255 255
0.044123519 0.03612503 -0.059703458 255 255 255
0.042449661 0.037009656 -0.059896041 255 255 255
0.043369923 0.032709513 -0.058738466 255 255 255
0.042862255 0.033621058 -0.058221374 255 255 255
0.043589 0.033492215 -0.058541335 255 255 255
0.044176865 0.033509914 -0.058907483 255 255 255
0.042616326 0.034560669 -0.058194667 255 255 255
0.043547887 0.034446608 -0.058472294 255 255 255
0.044227637 0.034514949 -0.058893647 255 255 255
0.040786188 0.035590574 -0.058890779 255 255 255
0.041531838 0.035595417 -0.058597859 255 255 255
0.042489845 0.035510637 -0.058509219 255 255 255
0.04344609 0.035460562 -0.058716226 255 255 255
0.044068109 0.035298005 -0.058950651 255 255 255
0.041533154 0.036056176 -0.058907297 255 255 255
0.042496901 0.036119845 -0.058903463 255 255 255
0.043034401 0.036011145 -0.058910552 255 255 255
0 0 0 1 0 0 0 1 0 0 0 1 0 0 0 0 0 109 1 0 0
