ply
format ascii 1.0
comment PCL generated
element vertex 263
property float x
property float y
property float z
property uchar red
property uchar green
property uchar blue
element camera 1
property float view_px
property float view_py
property float view_pz
property float x_axisx
property float x_axisy
property float x_axisz
property float y_axisx
property float y_axisy
property float y_axisz
property float z_axisx
property float z_axisy
property float z_axisz
property float focal
property float scalex
property float scaley
property float centerx
property float centery
property int viewportx
property int viewporty
property float k1
property float k2
end_header
128.90912 57.104023 -23.630972 0 0 0
128.15004 57.104023 -27.640314 0 0 0
124.96432 57.104023 -20.330973 0 0 0
128.8864 57.104023 -26.330973 0 0 0
121.30421 60.504025 -25.713717 0 0 0
126.13575 54.426178 -24.4601 0 0 0
127.31413 56.806816 -27.523066 0 0 0
126.35003 55.062912 -25.430975 0 0 0
125.75003 54.606987 -24.830973 0 0 0
127.03321 60.104023 -21.530973 0 0 0
127.85003 57.404022 -21.75836 0 0 0
126.05003 60.929211 -21.530973 0 0 0
124.91323 61.304024 -21.530973 0 0 0
123.95004 61.329014 -21.530973 0 0 0
123.05003 61.004025 -21.408812 0 0 0
122.45004 61.004025 -21.629057 0 0 0
121.25003 59.392395 -21.530973 0 0 0
121.25003 58.904022 -21.398127 0 0 0
121.10574 58.004025 -21.530973 0 0 0
126.65003 55.604023 -21.642046 0 0 0
125.70235 55.304024 -21.530973 0 0 0
124.25003 55.031105 -21.530973 0 0 0
122.75003 55.604023 -21.353842 0 0 0
121.85003 55.904022 -21.681414 0 0 0
121.44952 56.804024 -21.530973 0 0 0
126.59341 62.504025 -25.730974 0 0 0
123.05003 62.804024 -25.520735 0 0 0
129.09474 59.204021 -25.730974 0 0 0
129.05003 57.080547 -25.730974 0 0 0
127.85003 55.17952 -25.730974 0 0 0
127.55003 55.004025 -25.646585 0 0 0
125.15003 62.058144 -28.130976 0 0 0
124.55003 62.130264 -28.130976 0 0 0
127.55003 60.404022 -28.063978 0 0 0
127.55003 59.804024 -28.352438 0 0 0
128.15004 58.904022 -27.925623 0 0 0
128.15004 58.004025 -27.91464 0 0 0
127.85003 57.404022 -27.973581 0 0 0
127.55003 57.404022 -28.09178 0 0 0
127.25003 57.48275 -28.130976 0 0 0
123.65003 61.904022 -28.29397 0 0 0
122.75003 61.904022 -27.849321 0 0 0
122.45004 61.604023 -27.840719 0 0 0
125.75003 62.676472 -23.930975 0 0 0
125.45004 62.804024 -24.170958 0 0 0
125.1184 62.804024 -23.930975 0 0 0
123.05003 62.606865 -23.930975 0 0 0
121.85003 62.088696 -23.930975 0 0 0
128.17802 61.004025 -23.930975 0 0 0
128.56392 60.404022 -23.930975 0 0 0
129.05003 58.880135 -23.930975 0 0 0
126.73093 54.404022 -23.930975 0 0 0
125.45004 53.969666 -23.930975 0 0 0
123.35003 54.287968 -24.230974 0 0 0
123.31145 54.104023 -23.930975 0 0 0
126.65003 61.004025 -21.921747 0 0 0
127.85003 59.804024 -22.066347 0 0 0
127.25003 60.404022 -21.889452 0 0 0
127.85003 59.185898 -21.830973 0 0 0
127.99725 58.004025 -21.830973 0 0 0
125.75003 61.604023 -22.012526 0 0 0
124.85003 61.904022 -22.147581 0 0 0
123.65003 61.839275 -22.130972 0 0 0
122.75003 61.344414 -21.830973 0 0 0
121.85003 60.755749 -21.830973 0 0 0
121.85003 61.304024 -22.380205 0 0 0
121.77177 61.004025 -22.130972 0 0 0
121.05583 60.104023 -22.130972 0 0 0
120.83342 58.904022 -21.830973 0 0 0
120.60605 58.604023 -22.130972 0 0 0
120.75226 58.004025 -22.130972 0 0 0
125.75003 62.789841 -26.030973 0 0 0
125.15003 62.918919 -26.030973 0 0 0
124.55003 62.91703 -26.330973 0 0 0
123.65003 62.804024 -26.57443 0 0 0
123.05003 62.694878 -26.330973 0 0 0
122.04723 62.204021 -26.330973 0 0 0
128.80748 59.804024 -26.330973 0 0 0
127.25003 61.904022 -26.474169 0 0 0
128.55229 60.404022 -26.330973 0 0 0
129.05003 58.570061 -26.330973 0 0 0
129.10652 57.704021 -26.030973 0 0 0
121.42953 61.604023 -26.030973 0 0 0
121.36035 61.304024 -26.030973 0 0 0
127.55003 56.395355 -21.830973 0 0 0
127.23563 55.904022 -21.830973 0 0 0
126.65003 55.406254 -21.830973 0 0 0
123.95004 54.745258 -21.830973 0 0 0
122.75003 54.777908 -22.130972 0 0 0
124.85003 54.704021 -21.902567 0 0 0
124.55003 54.404022 -22.271173 0 0 0
121.21239 56.804024 -21.830973 0 0 0
120.95004 57.066666 -22.130972 0 0 0
121.55003 55.904022 -21.959345 0 0 0
128.75003 56.423771 -26.030973 0 0 0
128.45004 55.884357 -26.030973 0 0 0
128.15004 55.544964 -26.030973 0 0 0
127.55003 55.52898 -26.330973 0 0 0
124.55003 59.804024 -20.539087 0 0 0
125.75003 57.704021 -20.41398 0 0 0
125.15003 58.304024 -20.249022 0 0 0
123.95004 59.204021 -20.30065 0 0 0
123.05003 59.504025 -20.514727 0 0 0
123.65003 58.904022 -20.257433 0 0 0
122.75003 58.904022 -20.48324 0 0 0
123.05003 58.304024 -20.339243 0 0 0
123.95004 57.704021 -20.206877 0 0 0
122.45004 58.304024 -20.538313 0 0 0
122.75003 57.404022 -20.506063 0 0 0
126.95004 60.404022 -28.542131 0 0 0
126.35941 60.704021 -28.730974 0 0 0
127.17335 59.204021 -28.730974 0 0 0
126.95004 59.504025 -28.851477 0 0 0
126.65003 59.204021 -28.942011 0 0 0
126.65003 58.769344 -28.730974 0 0 0
127.49412 58.304024 -28.430975 0 0 0
126.95004 58.304024 -28.559614 0 0 0
126.22272 61.304024 -28.430975 0 0 0
125.45004 61.304024 -28.745462 0 0 0
124.55003 61.875237 -28.430975 0 0 0
124.25003 61.604023 -28.614592 0 0 0
123.21819 61.604023 -28.430975 0 0 0
123.65003 61.304024 -28.639593 0 0 0
124.25003 56.504025 -20.519327 0 0 0
123.65003 56.804024 -20.474241 0 0 0
126.95004 62.26059 -24.530973 0 0 0
124.55003 62.966442 -24.530973 0 0 0
128.88907 59.804024 -24.230974 0 0 0
127.85003 61.538357 -24.530973 0 0 0
127.55003 61.76218 -24.230974 0 0 0
129.18846 57.704021 -24.530973 0 0 0
121.55003 61.938248 -24.230974 0 0 0
121.18073 61.604023 -24.530973 0 0 0
120.78761 61.004025 -24.530973 0 0 0
128.8062 56.204021 -24.530973 0 0 0
127.25003 54.596878 -24.230974 0 0 0
126.95004 54.571682 -24.530973 0 0 0
125.75003 62.204021 -22.849398 0 0 0
124.25003 62.311962 -22.730974 0 0 0
126.37143 61.904022 -22.730974 0 0 0
127.25003 61.291969 -22.730974 0 0 0
127.55003 60.703835 -22.430975 0 0 0
128.61583 58.604023 -22.730974 0 0 0
128.61203 57.704021 -22.730974 0 0 0
122.15003 61.545715 -22.430975 0 0 0
121.85003 61.347832 -22.430975 0 0 0
121.85003 61.556213 -22.730974 0 0 0
121.79652 61.304024 -22.430975 0 0 0
121.55003 61.318417 -22.730974 0 0 0
120.99358 60.704021 -22.730974 0 0 0
120.63834 59.804024 -22.430975 0 0 0
120.44546 58.904022 -22.430975 0 0 0
126.65003 62.253292 -26.630972 0 0 0
125.15003 62.652363 -26.930975 0 0 0
128.15004 60.886089 -26.630972 0 0 0
128.59689 59.804024 -26.930975 0 0 0
128.89655 57.704021 -26.630972 0 0 0
128.75003 58.904022 -27.05681 0 0 0
121.69376 61.904022 -26.630972 0 0 0
121.51103 61.604023 -26.630972 0 0 0
128.24448 56.804024 -22.430975 0 0 0
127.99307 55.904022 -22.730974 0 0 0
127.54041 55.304024 -22.730974 0 0 0
127.25003 55.044331 -22.730974 0 0 0
126.95004 54.704021 -23.03063 0 0 0
121.70623 55.304024 -22.430975 0 0 0
122.15003 54.840919 -22.430975 0 0 0
121.65657 55.304024 -22.730974 0 0 0
126.05003 54.450787 -22.730974 0 0 0
128.15004 56.204021 -26.924128 0 0 0
128.15004 56.504025 -27.218523 0 0 0
127.85003 56.020027 -26.930975 0 0 0
124.85003 54.188564 -22.730974 0 0 0
123.95004 54.121563 -22.730974 0 0 0
123.05003 54.467178 -22.430975 0 0 0
122.45004 54.506088 -22.730974 0 0 0
121.25003 55.986053 -22.730974 0 0 0
124.85003 60.872097 -29.030973 0 0 0
125.30901 60.704021 -29.030973 0 0 0
126.35003 59.949203 -29.030973 0 0 0
126.95004 59.53558 -21.230974 0 0 0
126.65003 58.904022 -20.883764 0 0 0
127.25003 58.304024 -21.16757 0 0 0
127.22665 57.404022 -21.230974 0 0 0
125.75003 60.404022 -21.067842 0 0 0
126.35003 60.104023 -21.143061 0 0 0
124.85003 60.704021 -21.056971 0 0 0
125.15003 60.104023 -20.768156 0 0 0
123.95004 60.404022 -20.838682 0 0 0
123.05003 60.404022 -20.944422 0 0 0
122.45004 60.499184 -21.230974 0 0 0
122.75003 59.804024 -20.729124 0 0 0
121.8576 59.804024 -21.230974 0 0 0
126.05003 59.014454 -20.630972 0 0 0
126.35003 57.704021 -20.669764 0 0 0
122.15003 58.604023 -20.699476 0 0 0
121.7606 58.004025 -20.930975 0 0 0
121.55003 57.704021 -21.143564 0 0 0
126.65003 56.804024 -20.976732 0 0 0
126.05003 56.504025 -20.808489 0 0 0
126.05003 56.204021 -20.940382 0 0 0
125.45004 56.001221 -20.930975 0 0 0
126.05003 55.904022 -21.18302 0 0 0
124.85003 55.604023 -21.053507 0 0 0
124.25003 55.775143 -20.930975 0 0 0
122.75003 56.504025 -20.828764 0 0 0
122.15003 56.504025 -21.11128 0 0 0
123.35003 55.904022 -20.969179 0 0 0
127.12804 62.204021 -25.430975 0 0 0
126.35003 62.618412 -24.830973 0 0 0
125.15003 62.979904 -25.130972 0 0 0
123.95004 62.980789 -25.130972 0 0 0
123.05003 62.804024 -25.157869 0 0 0
122.15003 62.408363 -24.830973 0 0 0
122.15003 62.422127 -25.430975 0 0 0
121.85003 62.250874 -25.130972 0 0 0
128.86411 60.104023 -25.130972 0 0 0
127.8348 61.604023 -25.430975 0 0 0
128.36523 61.004025 -25.130972 0 0 0
129.05635 59.504025 -25.130972 0 0 0
129.23262 58.304024 -25.130972 0 0 0
129.18347 57.404022 -24.830973 0 0 0
121.45237 61.904022 -25.430975 0 0 0
121.08512 61.304024 -25.130972 0 0 0
120.88875 60.704021 -24.830973 0 0 0
128.65034 55.904022 -24.830973 0 0 0
127.85003 54.986221 -24.830973 0 0 0
127.55003 54.8307 -25.130972 0 0 0
127.25003 54.754696 -25.130972 0 0 0
125.75003 62.398075 -27.230974 0 0 0
123.95004 62.485981 -27.530973 0 0 0
123.05003 62.301891 -27.530973 0 0 0
127.58496 61.004025 -27.530973 0 0 0
126.63662 61.604023 -27.830973 0 0 0
127.25003 61.304024 -27.581766 0 0 0
127.03031 61.304024 -27.830973 0 0 0
128.18019 60.404022 -27.230974 0 0 0
128.45004 59.504025 -27.403555 0 0 0
128.46239 58.004025 -27.530973 0 0 0
122.2942 61.904022 -27.530973 0 0 0
122.02374 61.604023 -27.530973 0 0 0
126.65003 62.211933 -23.630972 0 0 0
124.85003 62.504025 -23.095228 0 0 0
123.95004 62.596603 -23.330973 0 0 0
123.05003 62.264595 -23.030973 0 0 0
122.15003 62.048515 -23.330973 0 0 0
127.85003 60.881069 -23.030973 0 0 0
129.00867 58.304024 -23.630972 0 0 0
128.58334 59.504025 -23.030973 0 0 0
120.95004 61.161621 -23.630972 0 0 0
120.44084 60.404022 -23.630972 0 0 0
120.35003 59.680965 -23.030973 0 0 0
128.45004 57.056911 -27.230974 0 0 0
127.85003 56.504025 -27.342035 0 0 0
128.59583 56.204021 -23.630972 0 0 0
128.22681 55.604023 -23.630972 0 0 0
127.85003 55.186104 -23.630972 0 0 0
125.75003 54.104023 -23.323191 0 0 0
125.15003 53.916405 -23.630972 0 0 0
123.95004 54.014328 -23.030973 0 0 0
123.95004 53.928185 -23.630972 0 0 0
122.92586 54.104023 -23.330973 0 0 0
122.75003 54.135918 -23.630972 0 0 0
0 0 0 1 0 0 0 1 0 0 0 1 0 0 0 0 0 263 1 0 0
