ply
format ascii 1.0
comment PCL generated
element vertex 353
property float x
property float y
property float z
property uchar red
property uchar green
property uchar blue
element camera 1
property float view_px
property float view_py
property float view_pz
property float x_axisx
property float x_axisy
property float x_axisz
property float y_axisx
property float y_axisy
property float y_axisz
property float z_axisx
property float z_axisy
property float z_axisz
property float focal
property float scalex
property float scaley
property float centerx
property float centery
property int viewportx
property int viewporty
property float k1
property float k2
end_header
-71.949974 57.104023 7.4797831 0 0 0
-73.36142 57.104023 9.3690281 0 0 0
-65.01445 57.104023 9.6690273 0 0 0
-64.922279 57.104023 9.9690275 0 0 0
-64.914902 57.104023 11.769028 0 0 0
-65.705963 53.504025 8.7690277 0 0 0
-66.849976 52.904022 8.1833515 0 0 0
-66.849976 52.304024 9.1039886 0 0 0
-67.449974 52.304024 8.2168722 0 0 0
-68.125488 51.704021 8.7690277 0 0 0
-69.249977 51.372337 8.7690277 0 0 0
-67.449974 54.704021 6.8382177 0 0 0
-66.111069 52.304024 9.9690275 0 0 0
-67.449974 51.704021 9.5338459 0 0 0
-68.649979 51.329662 9.3690281 0 0 0
-69.249977 51.18354 9.3690281 0 0 0
-66.849976 54.104023 7.2968874 0 0 0
-66.849976 53.504025 7.601265 0 0 0
-73.572624 57.104023 10.269028 0 0 0
-73.229607 57.104023 12.669027 0 0 0
-67.749977 58.604023 14.059422 0 0 0
-66.249977 57.676197 13.869028 0 0 0
-66.849976 58.265732 13.869028 0 0 0
-71.349976 57.104023 14.838625 0 0 0
-68.649979 59.016605 13.869028 0 0 0
-70.149979 58.947838 13.869028 0 0 0
-70.749977 57.104023 15.119239 0 0 0
-69.549973 58.904022 14.049398 0 0 0
-71.049973 58.604023 13.866525 0 0 0
-65.349976 55.84951 13.869028 0 0 0
-67.149979 57.104023 14.92294 0 0 0
-65.402252 54.404022 13.869028 0 0 0
-65.69532 56.804024 13.869028 0 0 0
-65.857643 53.204021 13.869028 0 0 0
-66.549973 52.343544 13.869028 0 0 0
-68.221939 51.404022 13.869028 0 0 0
-68.949974 51.274273 13.869028 0 0 0
-69.549973 51.404022 14.073011 0 0 0
-72.849976 56.804024 13.620996 0 0 0
-72.849976 55.004025 14.085603 0 0 0
-72.909355 54.104023 13.869028 0 0 0
-70.749977 51.704021 13.988841 0 0 0
-65.338196 58.004025 11.469028 0 0 0
-67.149979 59.55764 11.469028 0 0 0
-68.049973 59.877522 11.469028 0 0 0
-69.549973 60.001469 11.469028 0 0 0
-66.549973 59.204021 11.346268 0 0 0
-65.833908 58.604023 11.469028 0 0 0
-70.449974 59.804024 11.724287 0 0 0
-72.526184 58.604023 11.469028 0 0 0
-73.246468 57.704021 11.469028 0 0 0
-64.648323 56.504025 11.469028 0 0 0
-65.367706 52.604023 11.469028 0 0 0
-67.749977 50.804024 11.311976 0 0 0
-71.649979 51.104023 11.363308 0 0 0
-69.249977 57.704021 6.9279375 0 0 0
-69.849976 57.404022 6.7861643 0 0 0
-67.449974 56.204021 6.7969456 0 0 0
-68.049973 56.804024 6.7190895 0 0 0
-68.049973 56.058819 6.6690273 0 0 0
-69.249977 56.804024 6.5809965 0 0 0
-70.149979 56.504025 6.5269241 0 0 0
-68.049973 55.304024 6.6231127 0 0 0
-69.549973 55.904022 6.4791422 0 0 0
-70.377174 55.304024 6.6690273 0 0 0
-70.749977 56.504025 6.6567326 0 0 0
-70.449974 55.604023 6.7199268 0 0 0
-71.049973 55.904022 6.7244177 0 0 0
-71.049973 55.304024 6.8407831 0 0 0
-71.649979 55.604023 6.9579124 0 0 0
-69.549973 59.605835 9.0690269 0 0 0
-66.249977 58.604023 9.2471333 0 0 0
-65.649979 58.004025 9.3139458 0 0 0
-68.049973 59.457916 9.0690269 0 0 0
-70.149979 59.504025 9.0359859 0 0 0
-71.349976 59.088985 9.0690269 0 0 0
-72.249977 58.604023 9.3646383 0 0 0
-72.549973 58.004025 8.8534632 0 0 0
-65.038628 56.204021 9.0690269 0 0 0
-65.049973 54.404022 9.2100792 0 0 0
-65.649979 57.104023 8.5131855 0 0 0
-73.593315 55.604023 9.0690269 0 0 0
-73.555443 54.704021 9.0690269 0 0 0
-73.449974 54.104023 9.1277599 0 0 0
-71.949974 51.858307 9.0690269 0 0 0
-72.249977 52.084061 9.0690269 0 0 0
-67.449974 55.304024 15.505385 0 0 0
-68.649979 56.804024 15.512128 0 0 0
-68.049973 56.204021 15.589904 0 0 0
-69.849976 56.804024 15.495389 0 0 0
-69.249977 56.204021 15.694437 0 0 0
-68.649979 55.304024 15.797201 0 0 0
-70.149979 55.604023 15.691952 0 0 0
-69.849976 55.304024 15.774137 0 0 0
-67.449974 54.104023 15.399749 0 0 0
-68.049973 54.404022 15.643989 0 0 0
-68.649979 54.404022 15.757689 0 0 0
-69.249977 54.704021 15.813817 0 0 0
-70.149979 54.168537 15.669028 0 0 0
-69.549973 53.804024 15.64992 0 0 0
-68.949974 53.504025 15.563392 0 0 0
-70.749977 55.904022 15.490633 0 0 0
-70.749977 54.704021 15.557033 0 0 0
-73.534111 57.104023 11.469028 0 0 0
-65.620361 57.404022 13.269028 0 0 0
-67.790619 59.204021 13.269028 0 0 0
-67.156654 58.904022 13.269028 0 0 0
-66.00013 57.704021 13.569028 0 0 0
-69.549973 59.504025 13.17013 0 0 0
-70.749977 59.152817 13.269028 0 0 0
-71.810928 58.304024 13.569028 0 0 0
-72.249977 57.845829 13.569028 0 0 0
-64.977715 55.004025 13.269028 0 0 0
-65.474586 53.504025 13.569028 0 0 0
-65.949974 52.442379 13.269028 0 0 0
-66.363731 52.004025 13.269028 0 0 0
-67.149979 51.637577 13.569028 0 0 0
-68.731506 51.104023 13.569028 0 0 0
-69.249977 51.067421 13.569028 0 0 0
-69.849976 50.804024 12.998253 0 0 0
-73.149979 56.204021 13.448434 0 0 0
-73.237518 55.004025 13.569028 0 0 0
-72.249977 52.414406 13.569028 0 0 0
-73.299141 54.104023 13.269028 0 0 0
-72.849976 53.204021 13.455814 0 0 0
-71.649979 51.84972 13.569028 0 0 0
-72.249977 52.134373 13.269028 0 0 0
-64.957115 57.404022 11.169027 0 0 0
-68.949974 60.021954 10.869028 0 0 0
-69.849976 59.977409 10.869028 0 0 0
-71.049973 59.644867 10.869028 0 0 0
-64.704514 56.804024 10.869028 0 0 0
-64.516609 55.904022 10.869028 0 0 0
-64.482018 55.304024 10.869028 0 0 0
-64.592171 54.404022 11.169027 0 0 0
-64.784576 53.804024 10.869028 0 0 0
-66.412659 51.704021 10.569028 0 0 0
-66.848389 51.404022 10.569028 0 0 0
-66.849976 51.312977 10.869028 0 0 0
-67.749977 51.044598 10.569028 0 0 0
-69.249977 50.609673 10.869028 0 0 0
-73.864258 56.204021 11.169027 0 0 0
-73.997787 55.304024 11.169027 0 0 0
-73.976646 54.704021 11.169027 0 0 0
-73.749977 53.592884 11.169027 0 0 0
-73.877365 54.104023 10.869028 0 0 0
-73.221664 52.604023 10.869028 0 0 0
-72.549973 51.741955 11.169027 0 0 0
-72.801834 52.004025 11.169027 0 0 0
-71.049973 50.840519 10.869028 0 0 0
-67.449341 58.904022 8.4690275 0 0 0
-66.849976 58.55938 8.4690275 0 0 0
-66.249977 58.001152 8.4690275 0 0 0
-68.649979 59.253551 8.4690275 0 0 0
-69.549973 59.204021 8.3520164 0 0 0
-70.113853 59.204021 8.4690275 0 0 0
-71.649979 58.551365 8.4690275 0 0 0
-72.736443 57.404022 8.4690275 0 0 0
-65.349976 56.791058 8.7690277 0 0 0
-65.333313 55.004025 8.4690275 0 0 0
-65.349976 54.404022 8.6530399 0 0 0
-73.302628 56.504025 8.7690277 0 0 0
-73.29863 55.604023 8.4690275 0 0 0
-72.549973 53.504025 8.1931849 0 0 0
-71.649979 52.311733 8.4690275 0 0 0
-72.249977 52.394585 8.7690277 0 0 0
-73.105553 54.104023 8.4690275 0 0 0
-71.349976 52.004025 8.6181583 0 0 0
-70.449974 51.532581 8.7690277 0 0 0
-68.949974 57.760635 15.069028 0 0 0
-68.349976 57.704021 15.021895 0 0 0
-69.849976 58.004025 14.8578 0 0 0
-67.149979 56.204021 15.259813 0 0 0
-66.849976 56.504025 15.012994 0 0 0
-66.249977 55.004025 14.824862 0 0 0
-66.849976 55.604023 15.210327 0 0 0
-66.549973 54.704021 15.015817 0 0 0
-66.849976 53.804024 15.012349 0 0 0
-67.449974 52.904022 14.922513 0 0 0
-68.049973 53.204021 15.308301 0 0 0
-69.249977 52.604023 15.119019 0 0 0
-69.849976 52.904022 15.250276 0 0 0
-71.349976 56.204021 15.182284 0 0 0
-71.349976 55.304024 15.318501 0 0 0
-71.649979 55.004025 15.146226 0 0 0
-71.349976 53.804024 15.110034 0 0 0
-71.949974 54.404022 14.885549 0 0 0
-70.749977 53.504025 15.271981 0 0 0
-70.935028 53.204021 15.069028 0 0 0
-68.049973 59.588745 12.669027 0 0 0
-68.649979 59.573112 12.969028 0 0 0
-66.608025 58.904022 12.669027 0 0 0
-65.928154 58.304024 12.669027 0 0 0
-70.176361 59.504025 12.969028 0 0 0
-71.649979 58.846481 12.969028 0 0 0
-72.76252 57.704021 12.969028 0 0 0
-65.049973 56.804024 12.714368 0 0 0
-64.749977 55.304024 12.709377 0 0 0
-64.853477 54.104023 12.669027 0 0 0
-65.445549 52.904022 12.969028 0 0 0
-66.849976 51.381596 12.669027 0 0 0
-67.449974 51.081676 12.669027 0 0 0
-68.049973 50.886208 12.669027 0 0 0
-69.549973 50.661739 12.669027 0 0 0
-73.546928 55.304024 12.969028 0 0 0
-72.797966 52.604023 12.969028 0 0 0
-73.531242 54.704021 12.969028 0 0 0
-73.26104 53.504025 12.969028 0 0 0
-70.749977 51.00074 12.969028 0 0 0
-70.454552 50.804024 12.669027 0 0 0
-71.227715 51.104023 12.669027 0 0 0
-65.349876 58.004025 10.269028 0 0 0
-64.993843 57.404022 10.269028 0 0 0
-67.749977 59.791641 10.569028 0 0 0
-70.430115 59.804024 10.269028 0 0 0
-66.545212 59.204021 10.569028 0 0 0
-65.649979 58.436623 10.569028 0 0 0
-71.649979 59.316242 10.569028 0 0 0
-72.549973 58.624191 10.569028 0 0 0
-64.590134 55.904022 10.269028 0 0 0
-64.623703 54.704021 10.269028 0 0 0
-64.893806 53.804024 10.269028 0 0 0
-65.049973 53.351398 10.569028 0 0 0
-65.649979 52.492943 10.569028 0 0 0
-68.949974 50.804024 10.389095 0 0 0
-70.149979 50.656013 10.569028 0 0 0
-69.849976 50.804024 9.9999962 0 0 0
-73.859024 56.204021 10.269028 0 0 0
-73.989548 55.304024 10.569028 0 0 0
-73.693695 53.804024 10.269028 0 0 0
-73.449974 53.085217 10.569028 0 0 0
-71.949974 51.325607 10.569028 0 0 0
-72.249977 51.619823 10.269028 0 0 0
-67.449974 58.304024 7.825141 0 0 0
-66.849976 57.704021 7.6775999 0 0 0
-68.349976 58.981995 8.1690273 0 0 0
-70.485634 58.904022 8.1690273 0 0 0
-71.949974 58.004025 8.1470299 0 0 0
-71.649979 57.704021 7.6384821 0 0 0
-66.249977 56.804024 7.6842585 0 0 0
-65.649979 55.904022 8.0288067 0 0 0
-65.649979 55.004025 8.021266 0 0 0
-65.949974 54.104023 8.0128975 0 0 0
-72.819786 56.804024 8.1690273 0 0 0
-72.549973 56.804024 7.8658848 0 0 0
-73.070015 55.904022 8.1690273 0 0 0
-72.849976 55.304024 7.8362803 0 0 0
-72.249977 54.104023 7.6843243 0 0 0
-72.849976 54.404022 7.980711 0 0 0
-66.849976 57.704021 14.345335 0 0 0
-68.949974 58.604023 14.383932 0 0 0
-68.049973 58.004025 14.735625 0 0 0
-70.149979 58.304024 14.55783 0 0 0
-71.049973 57.955338 14.469028 0 0 0
-71.349976 57.722088 14.469028 0 0 0
-66.249977 56.780613 14.469028 0 0 0
-65.649979 55.604023 14.266068 0 0 0
-66.249977 55.903076 14.769028 0 0 0
-65.949974 54.404022 14.494906 0 0 0
-66.275192 53.504025 14.469028 0 0 0
-66.983238 52.604023 14.469028 0 0 0
-67.749977 51.80806 14.169027 0 0 0
-68.127228 52.304024 14.769028 0 0 0
-69.249977 52.135113 14.769028 0 0 0
-69.849976 52.199623 14.769028 0 0 0
-71.949974 56.804024 14.568618 0 0 0
-72.549973 56.204021 14.265571 0 0 0
-72.14447 55.604023 14.769028 0 0 0
-72.249977 55.004025 14.709371 0 0 0
-71.39386 52.604023 14.469028 0 0 0
-72.103714 53.504025 14.469028 0 0 0
-70.749977 52.183693 14.469028 0 0 0
-65.390511 57.704021 12.369028 0 0 0
-68.649979 59.893158 12.069028 0 0 0
-69.249977 59.840416 12.369028 0 0 0
-70.149979 59.804024 12.066697 0 0 0
-65.949974 58.586193 12.069028 0 0 0
-67.451492 59.504025 12.369028 0 0 0
-71.049973 59.517612 12.069028 0 0 0
-71.649979 59.262043 11.769028 0 0 0
-72.249977 58.652042 12.369028 0 0 0
-72.683586 58.304024 12.069028 0 0 0
-64.749977 56.204021 12.285273 0 0 0
-64.584717 55.904022 11.769028 0 0 0
-64.558479 55.004025 11.769028 0 0 0
-64.757126 54.104023 12.369028 0 0 0
-65.049973 53.204021 12.111383 0 0 0
-65.349976 52.761005 12.369028 0 0 0
-65.855194 52.004025 12.069028 0 0 0
-65.829399 52.004025 11.769028 0 0 0
-66.249977 51.653587 12.069028 0 0 0
-67.149979 51.05822 11.769028 0 0 0
-67.699379 50.804024 11.769028 0 0 0
-68.349976 50.653332 12.069028 0 0 0
-68.949974 50.608677 12.369028 0 0 0
-69.249977 50.531948 11.769028 0 0 0
-73.719528 56.204021 12.069028 0 0 0
-73.849319 55.004025 12.069028 0 0 0
-73.841217 54.104023 11.769028 0 0 0
-73.594643 53.504025 12.069028 0 0 0
-73.244362 52.904022 12.369028 0 0 0
-73.212654 52.604023 11.769028 0 0 0
-72.013885 51.404022 12.069028 0 0 0
-70.449974 50.689362 12.069028 0 0 0
-71.349976 51.014072 12.069028 0 0 0
-72.851814 52.304024 12.369028 0 0 0
-67.749977 59.597446 9.6690273 0 0 0
-68.349976 59.804024 9.8789158 0 0 0
-68.949974 59.82769 9.6690273 0 0 0
-69.849976 59.864178 9.9690275 0 0 0
-65.909515 58.604023 9.9690275 0 0 0
-66.249977 58.890453 9.9690275 0 0 0
-66.849976 59.088203 9.3690281 0 0 0
-70.749977 59.578041 9.6690273 0 0 0
-71.949974 59.0336 9.9690275 0 0 0
-71.649979 59.144379 9.6690273 0 0 0
-72.571083 58.304024 9.3690281 0 0 0
-73.149979 57.706463 9.6690273 0 0 0
-73.213745 57.704021 9.9690275 0 0 0
-64.744217 56.504025 9.9690275 0 0 0
-64.726433 55.304024 9.6690273 0 0 0
-65.349976 53.504025 9.4136257 0 0 0
-65.567764 53.204021 9.3690281 0 0 0
-69.849976 51.140133 9.3690281 0 0 0
-73.749977 56.204021 9.7267132 0 0 0
-73.812988 55.304024 9.6690273 0 0 0
-73.838753 54.704021 9.9690275 0 0 0
-73.332664 53.504025 9.3690281 0 0 0
-73.153893 52.904022 9.6690273 0 0 0
-72.849976 52.604023 9.446661 0 0 0
-71.049973 51.181282 9.6690273 0 0 0
-71.984779 51.704021 9.6690273 0 0 0
-70.449974 50.884644 9.9690275 0 0 0
-71.218338 51.104023 9.9690275 0 0 0
-68.033638 58.304024 7.5690279 0 0 0
-67.149979 57.368065 7.2690277 0 0 0
-67.749977 57.404022 7.0162735 0 0 0
-69.249977 58.570591 7.5690279 0 0 0
-68.349976 57.58625 6.9690275 0 0 0
-69.849976 58.179165 7.2690277 0 0 0
-70.749977 58.24654 7.5690279 0 0 0
-70.749977 57.355415 6.9690275 0 0 0
-71.349976 57.404022 7.2555065 0 0 0
-66.753166 56.804024 7.2690277 0 0 0
-67.149979 56.633179 6.9690275 0 0 0
-66.249977 55.604023 7.3797445 0 0 0
-66.849976 54.704021 7.1312037 0 0 0
-66.249977 54.704021 7.4914846 0 0 0
-71.649979 56.504025 7.0368166 0 0 0
-72.249977 55.904022 7.3190193 0 0 0
-71.649979 55.004025 7.1288414 0 0 0
-72.249977 55.304024 7.3139439 0 0 0
-71.39254 54.704021 6.9690275 0 0 0
0 0 0 1 0 0 0 1 0 0 0 1 0 0 0 0 0 353 1 0 0
