ply
format ascii 1.0
comment PCL generated
element vertex 292
property float x
property float y
property float z
property uchar red
property uchar green
property uchar blue
element camera 1
property float view_px
property float view_py
property float view_pz
property float x_axisx
property float x_axisy
property float x_axisz
property float y_axisx
property float y_axisy
property float y_axisz
property float z_axisx
property float z_axisy
property float z_axisz
property float focal
property float scalex
property float scaley
property float centerx
property float centery
property int viewportx
property int viewporty
property float k1
property float k2
end_header
44.750031 18.704021 19.391644 0 0 0
46.357716 18.704021 19.569027 0 0 0
42.05003 18.704021 17.12809 0 0 0
46.873116 23.268955 12.61575 0 0 0
42.775467 20.275024 12.324509 0 0 0
42.597946 19.673122 12.678258 0 0 0
42.950027 18.1238 13.569028 0 0 0
48.350029 22.304022 12.786833 0 0 0
42.950027 19.904022 12.324761 0 0 0
42.950027 19.798523 12.369028 0 0 0
48.056351 22.304022 18.669027 0 0 0
46.250031 23.085012 18.669027 0 0 0
47.051109 22.904022 18.669027 0 0 0
45.350029 23.014008 18.669027 0 0 0
48.950027 21.104021 18.602074 0 0 0
48.950027 19.904022 18.757957 0 0 0
48.950027 19.004021 18.628201 0 0 0
44.750031 22.604023 18.809885 0 0 0
43.689804 22.004021 18.669027 0 0 0
43.250027 21.104021 18.732674 0 0 0
42.950027 19.604021 18.593399 0 0 0
48.05003 17.804022 18.692936 0 0 0
47.450027 17.504021 18.781281 0 0 0
46.850029 17.204021 18.743734 0 0 0
43.850029 18.104021 18.756731 0 0 0
43.250027 18.404022 18.477903 0 0 0
42.05003 19.004021 13.608315 0 0 0
50.150028 18.237434 13.869028 0 0 0
49.55003 17.204021 13.845989 0 0 0
48.950027 16.604021 13.842712 0 0 0
48.05003 16.154335 13.869028 0 0 0
46.850029 15.86634 13.869028 0 0 0
43.55003 16.604021 14.085878 0 0 0
42.419041 18.704021 17.769028 0 0 0
50.591396 18.704021 15.369028 0 0 0
48.807442 23.804022 15.669028 0 0 0
47.75 24.404022 15.669028 0 0 0
45.05003 24.644295 15.669028 0 0 0
50.150028 22.26268 15.669028 0 0 0
50.450027 21.630398 15.669028 0 0 0
50.662094 20.804022 15.669028 0 0 0
50.018482 17.504021 15.669028 0 0 0
49.529274 16.904022 15.669028 0 0 0
48.350029 15.98634 15.669028 0 0 0
45.650028 15.404021 15.429012 0 0 0
42.650028 16.904022 15.820662 0 0 0
42.931545 16.604021 15.669028 0 0 0
42.05003 17.804022 15.758663 0 0 0
44.450027 15.704021 15.891212 0 0 0
46.850029 23.804022 17.816055 0 0 0
48.650028 22.604023 18.030861 0 0 0
47.750031 22.946358 18.369028 0 0 0
47.179646 23.504021 18.069027 0 0 0
49.250031 21.74229 18.069027 0 0 0
49.55003 20.804022 18.122833 0 0 0
49.55003 19.904022 18.218794 0 0 0
49.55003 18.991196 18.069027 0 0 0
44.450027 23.023075 18.369028 0 0 0
43.55003 22.702484 18.069027 0 0 0
42.950027 22.045067 18.069027 0 0 0
42.765854 21.704021 18.069027 0 0 0
42.762333 20.804022 18.369028 0 0 0
42.650028 20.204021 18.328064 0 0 0
42.350029 19.604021 17.958269 0 0 0
48.950027 18.104021 18.235601 0 0 0
48.650028 17.494534 18.069027 0 0 0
47.750031 16.821407 18.069027 0 0 0
47.225872 16.604021 18.069027 0 0 0
45.950027 16.604021 18.28739 0 0 0
45.05003 16.821051 18.369028 0 0 0
44.150028 17.204021 18.313993 0 0 0
43.55003 17.504021 18.146639 0 0 0
47.652611 24.104023 13.269028 0 0 0
46.55003 24.404022 13.188216 0 0 0
45.650028 24.404022 13.244529 0 0 0
50.150028 21.104021 13.319407 0 0 0
49.850029 20.804022 13.033472 0 0 0
50.187977 20.204021 13.269028 0 0 0
49.850029 19.004021 13.116201 0 0 0
49.250031 22.934307 13.269028 0 0 0
48.539219 23.504021 13.269028 0 0 0
49.277966 22.904022 13.269028 0 0 0
49.250031 22.904022 13.246152 0 0 0
49.250031 22.604023 13.09236 0 0 0
48.950027 22.904022 13.109056 0 0 0
49.55003 22.304022 13.119307 0 0 0
44.750031 24.104023 13.186878 0 0 0
43.850029 23.804022 13.386826 0 0 0
43.250027 23.504021 13.552549 0 0 0
42.05003 19.904022 13.098001 0 0 0
42.05003 19.304022 13.358911 0 0 0
42.350029 19.304022 13.045419 0 0 0
50.084084 18.404022 13.569028 0 0 0
49.850029 18.372076 13.269028 0 0 0
49.55003 18.104021 13.161719 0 0 0
48.950027 17.204021 13.223215 0 0 0
48.650028 17.204021 13.008649 0 0 0
42.950027 18.704021 13.047773 0 0 0
48.773335 23.804022 15.069028 0 0 0
47.750031 24.390663 15.069028 0 0 0
46.250031 24.786249 15.369028 0 0 0
45.650028 24.765251 15.369028 0 0 0
46.922523 24.704021 15.369028 0 0 0
45.142464 24.704021 15.069028 0 0 0
50.461811 21.704021 15.069028 0 0 0
50.772583 20.204021 15.369028 0 0 0
50.752518 19.304022 15.369028 0 0 0
50.769825 19.304022 15.069028 0 0 0
49.55003 23.098827 15.069028 0 0 0
44.450027 24.492245 15.369028 0 0 0
42.172226 22.604023 15.369028 0 0 0
41.503376 20.204021 15.369028 0 0 0
50.222355 17.804022 15.369028 0 0 0
50.041809 17.504021 15.369028 0 0 0
49.23671 16.604021 15.069028 0 0 0
47.150028 15.500345 15.369028 0 0 0
46.850029 15.483762 15.069028 0 0 0
46.55003 15.416458 15.369028 0 0 0
42.389217 17.204021 15.369028 0 0 0
44.150028 15.758443 15.069028 0 0 0
43.713451 16.004021 15.069028 0 0 0
47.579079 23.804022 17.469028 0 0 0
45.650028 23.910217 17.769028 0 0 0
45.05003 24.012215 17.469028 0 0 0
49.850029 21.404022 17.510923 0 0 0
49.894798 20.504021 17.769028 0 0 0
50.052532 19.304022 17.469028 0 0 0
49.250031 22.545885 17.469028 0 0 0
48.209522 23.504021 17.469028 0 0 0
44.750031 23.711308 17.769028 0 0 0
43.850029 23.504021 17.436926 0 0 0
43.176903 22.904022 17.469028 0 0 0
42.350029 22.004021 17.213678 0 0 0
42.05003 20.804022 17.429274 0 0 0
42.008881 19.904022 17.469028 0 0 0
49.250031 17.515123 17.469028 0 0 0
48.624275 16.904022 17.469028 0 0 0
47.750031 16.352798 17.469028 0 0 0
46.758762 16.004021 17.469028 0 0 0
46.250031 15.946981 17.469028 0 0 0
45.05003 16.069956 17.469028 0 0 0
42.713764 18.104021 17.769028 0 0 0
44.150028 16.665096 17.769028 0 0 0
43.143669 17.204021 17.469028 0 0 0
47.548077 23.804022 12.969028 0 0 0
46.55003 24.104023 12.907165 0 0 0
45.650028 24.157267 12.969028 0 0 0
49.296158 22.004021 12.969028 0 0 0
48.950027 19.304022 12.63728 0 0 0
44.450027 23.504021 12.632217 0 0 0
43.134911 22.604023 12.669027 0 0 0
42.389568 21.704021 12.969028 0 0 0
42.880615 19.904022 12.369028 0 0 0
42.350029 20.504021 12.611321 0 0 0
46.850029 20.504021 19.670364 0 0 0
45.950027 20.504021 19.751438 0 0 0
45.350029 20.504021 19.701372 0 0 0
47.150028 19.304022 19.576376 0 0 0
45.05003 19.604021 19.654976 0 0 0
45.950027 19.304022 19.709366 0 0 0
48.05003 23.934013 16.869028 0 0 0
46.55003 24.255016 17.169027 0 0 0
45.650028 24.4219 16.869028 0 0 0
50.265556 20.504021 17.169027 0 0 0
50.278774 19.904022 17.169027 0 0 0
48.950027 23.122602 17.169027 0 0 0
44.150028 23.859383 17.169027 0 0 0
43.589348 23.504021 17.169027 0 0 0
42.350029 22.318462 16.869028 0 0 0
41.886551 20.504021 17.169027 0 0 0
41.848156 19.004021 16.869028 0 0 0
49.973537 18.404022 17.169027 0 0 0
49.446056 17.504021 17.169027 0 0 0
47.366611 16.004021 17.169027 0 0 0
45.350029 15.843958 17.169027 0 0 0
45.950027 24.732147 14.469028 0 0 0
47.150028 24.59034 14.769028 0 0 0
45.950027 15.670869 16.869028 0 0 0
45.05003 15.704021 16.617546 0 0 0
42.650028 17.504021 17.117035 0 0 0
49.991066 22.604023 14.769028 0 0 0
42.950027 16.977467 16.869028 0 0 0
43.55003 16.604021 17.166792 0 0 0
50.750031 20.641918 14.769028 0 0 0
50.750031 20.204021 14.305165 0 0 0
44.450027 15.977623 16.869028 0 0 0
49.276112 23.504021 14.469028 0 0 0
44.450027 24.475136 14.769028 0 0 0
43.632442 24.104023 14.769028 0 0 0
43.194988 23.804022 14.769028 0 0 0
42.357559 22.904022 14.769028 0 0 0
42.05003 22.243448 14.469028 0 0 0
41.78104 21.704021 14.769028 0 0 0
41.60313 20.504021 14.469028 0 0 0
41.539986 19.904022 14.769028 0 0 0
41.645493 19.604021 14.169027 0 0 0
41.750031 19.150673 14.169027 0 0 0
50.450027 18.535862 14.469028 0 0 0
49.863678 17.504021 14.169027 0 0 0
49.432384 16.904022 14.169027 0 0 0
48.950027 16.462217 14.169027 0 0 0
48.350029 16.004021 14.46334 0 0 0
47.750031 15.704021 14.72613 0 0 0
47.450027 15.704021 14.389394 0 0 0
45.350029 15.564756 14.769028 0 0 0
42.05003 18.041231 14.769028 0 0 0
42.350029 17.504021 14.725975 0 0 0
44.150028 15.82106 14.769028 0 0 0
43.850029 16.090418 14.469028 0 0 0
43.850029 16.254822 14.169027 0 0 0
43.583809 16.304022 14.469028 0 0 0
43.782745 16.304022 14.169027 0 0 0
44.150028 16.004021 14.331028 0 0 0
47.750031 21.704021 19.128859 0 0 0
45.950027 22.604023 19.018974 0 0 0
47.150028 22.304022 19.052277 0 0 0
46.250031 22.004021 19.339235 0 0 0
46.52478 21.404022 19.569027 0 0 0
45.350029 22.004021 19.311796 0 0 0
48.350029 20.804022 19.089314 0 0 0
47.450027 20.804022 19.491982 0 0 0
48.05003 20.204021 19.308655 0 0 0
47.450027 19.604021 19.529182 0 0 0
48.350029 19.004021 19.038197 0 0 0
45.05003 21.104021 19.567535 0 0 0
44.210537 22.004021 18.969028 0 0 0
43.850029 21.104021 19.106455 0 0 0
44.150028 20.504021 19.362356 0 0 0
44.150028 19.604021 19.376286 0 0 0
43.850029 19.004021 19.102043 0 0 0
43.55003 19.904022 19.059546 0 0 0
47.750031 18.404022 19.143579 0 0 0
46.55003 18.104021 19.338411 0 0 0
45.350029 18.404022 19.436457 0 0 0
45.05003 17.599186 18.969028 0 0 0
45.650028 17.428928 18.969028 0 0 0
46.850029 24.476921 16.569027 0 0 0
45.950027 24.64119 16.269028 0 0 0
45.350029 24.58395 16.269028 0 0 0
49.850029 22.375565 16.569027 0 0 0
50.190002 21.704021 16.569027 0 0 0
50.450027 20.840969 16.569027 0 0 0
50.610489 20.204021 16.269028 0 0 0
50.479404 19.304022 16.569027 0 0 0
49.250031 23.119434 16.569027 0 0 0
49.55003 23.037018 15.969028 0 0 0
44.750031 24.353096 16.569027 0 0 0
43.850029 24.151295 15.969028 0 0 0
43.326176 23.804022 15.969028 0 0 0
42.950027 23.469303 15.969028 0 0 0
42.55587 22.904022 16.269028 0 0 0
42.072643 22.004021 16.569027 0 0 0
41.822838 21.704021 15.969028 0 0 0
41.661888 20.804022 16.269028 0 0 0
41.661537 19.604021 16.569027 0 0 0
41.633274 19.004021 15.969028 0 0 0
50.338825 18.404022 16.269028 0 0 0
50.105972 18.104021 16.569027 0 0 0
49.41169 16.904022 16.269028 0 0 0
48.529503 16.304022 16.569027 0 0 0
47.750031 15.901236 16.569027 0 0 0
47.600063 15.704021 15.969028 0 0 0
47.141941 15.704021 16.569027 0 0 0
46.250031 15.42727 15.969028 0 0 0
45.350029 15.483568 15.969028 0 0 0
43.55003 16.322767 16.569027 0 0 0
41.750031 18.594654 15.969028 0 0 0
42.219124 17.804022 16.569027 0 0 0
43.850029 15.994591 15.969028 0 0 0
48.650028 24.023529 14.169027 0 0 0
48.650028 23.877384 13.869028 0 0 0
48.05003 24.252739 13.869028 0 0 0
47.750031 24.475668 14.169027 0 0 0
46.850029 24.674694 13.869028 0 0 0
46.250031 24.641441 13.569028 0 0 0
45.650028 24.704021 13.948939 0 0 0
50.150028 22.004021 13.793647 0 0 0
50.450027 21.346348 13.869028 0 0 0
50.665821 20.804022 14.169027 0 0 0
50.450027 21.104021 13.717021 0 0 0
50.450027 20.204021 13.583077 0 0 0
50.668133 19.604021 14.169027 0 0 0
50.317253 19.304022 13.569028 0 0 0
49.55003 23.161909 14.169027 0 0 0
49.492252 22.904022 13.569028 0 0 0
44.750031 24.433231 13.869028 0 0 0
44.450027 24.20722 13.569028 0 0 0
43.082977 23.504021 13.869028 0 0 0
42.697426 22.904022 13.569028 0 0 0
42.386944 22.604023 13.869028 0 0 0
41.930573 21.104021 13.569028 0 0 0
41.629196 19.904022 14.169027 0 0 0
0 0 0 1 0 0 0 1 0 0 0 1 0 0 0 0 0 292 1 0 0
