ply
format ascii 1.0
comment PCL generated
element vertex 218
property float x
property float y
property float z
property uchar red
property uchar green
property uchar blue
element camera 1
property float view_px
property float view_py
property float view_pz
property float x_axisx
property float x_axisy
property float x_axisz
property float y_axisx
property float y_axisy
property float y_axisz
property float z_axisx
property float z_axisy
property float z_axisz
property float focal
property float scalex
property float scaley
property float centerx
property float centery
property int viewportx
property int viewporty
property float k1
property float k2
end_header
-48.489975 -94.216248 71.396492 0 0 0
-47.864262 -101.07202 70.818344 0 0 0
-50.049976 -94.095978 71.566498 0 0 0
-46.449974 -97.695984 70.802147 0 0 0
-49.449974 -101.49492 71.169029 0 0 0
-50.573997 -94.095978 71.769028 0 0 0
-51.216312 -94.695984 71.769028 0 0 0
-52.449974 -94.778839 72.369034 0 0 0
-48.549976 -97.995987 77.256401 0 0 0
-49.449974 -97.095978 77.270294 0 0 0
-50.649975 -97.395981 77.259727 0 0 0
-49.149975 -97.995987 77.376266 0 0 0
-50.049976 -97.995987 77.39695 0 0 0
-49.749973 -98.895981 77.380318 0 0 0
-48.549976 -96.299026 76.869034 0 0 0
-49.149975 -96.011002 76.869034 0 0 0
-50.049976 -95.953583 76.869034 0 0 0
-50.949974 -96.300003 76.869034 0 0 0
-48.549976 -97.353851 77.169029 0 0 0
-47.649975 -98.595978 76.915359 0 0 0
-48.554161 -99.195984 77.169029 0 0 0
-48.110096 -99.79599 76.869034 0 0 0
-48.549976 -100.69598 76.593903 0 0 0
-49.149975 -99.79599 77.150352 0 0 0
-49.81966 -99.79599 77.169029 0 0 0
-50.649975 -99.481628 77.169029 0 0 0
-50.049976 -100.48953 76.869034 0 0 0
-50.363396 -100.39598 76.869034 0 0 0
-51.849976 -96.79599 76.770157 0 0 0
-51.849976 -97.695984 76.933624 0 0 0
-51.272034 -98.29599 77.169029 0 0 0
-51.549976 -99.195984 76.96965 0 0 0
-52.149975 -98.895981 76.751068 0 0 0
-51.549976 -100.09598 76.6511 0 0 0
-47.049976 -96.195984 76.081863 0 0 0
-49.749973 -94.958984 76.269028 0 0 0
-50.349976 -94.995987 76.226723 0 0 0
-48.849976 -95.29599 76.418701 0 0 0
-50.349976 -95.486893 76.569031 0 0 0
-51.249977 -95.595978 76.433067 0 0 0
-52.149975 -95.895981 76.234665 0 0 0
-46.749973 -96.79599 76.123756 0 0 0
-47.049976 -97.395981 76.511497 0 0 0
-46.749973 -98.29599 76.354836 0 0 0
-47.219482 -99.195984 76.569031 0 0 0
-47.828197 -100.69598 76.269028 0 0 0
-49.449974 -100.97141 76.569031 0 0 0
-50.949974 -100.66425 76.569031 0 0 0
-50.349976 -101.26006 76.269028 0 0 0
-49.149975 -101.29599 76.273262 0 0 0
-52.621899 -97.995987 76.569031 0 0 0
-52.544708 -99.79599 76.269028 0 0 0
-48.178982 -94.995987 75.969032 0 0 0
-47.165161 -95.29599 75.669029 0 0 0
-46.749973 -96.408524 75.969032 0 0 0
-46.449974 -96.402802 75.669029 0 0 0
-47.708912 -95.29599 75.969032 0 0 0
-51.249977 -94.74057 75.669029 0 0 0
-52.749977 -96.166855 75.969032 0 0 0
-46.036369 -98.29599 75.669029 0 0 0
-45.131256 -96.495987 73.269028 0 0 0
-46.688004 -96.495987 75.969032 0 0 0
-47.566429 -96.495987 76.569031 0 0 0
-46.749973 -96.495987 76.024216 0 0 0
-46.56813 -99.495987 75.969032 0 0 0
-47.083984 -100.39598 75.969032 0 0 0
-47.949974 -101.16449 75.969032 0 0 0
-48.849976 -101.79698 75.669029 0 0 0
-49.952675 -101.89598 75.669029 0 0 0
-51.172272 -101.29599 75.969032 0 0 0
-53.283768 -99.79599 75.669029 0 0 0
-51.849976 -100.99599 75.910934 0 0 0
-52.619228 -100.69598 75.669029 0 0 0
-46.347836 -95.595978 75.069031 0 0 0
-49.149975 -93.925644 75.069031 0 0 0
-50.049976 -93.923492 75.069031 0 0 0
-47.049976 -94.695984 74.925674 0 0 0
-47.659855 -94.395981 75.069031 0 0 0
-48.249973 -94.369522 75.369034 0 0 0
-48.249973 -94.136749 75.069031 0 0 0
-49.149975 -94.139572 75.369034 0 0 0
-53.049976 -101.4583 71.169029 0 0 0
-50.049976 -94.132492 75.369034 0 0 0
-52.449974 -101.67587 71.169029 0 0 0
-51.849976 -102.0069 71.469032 0 0 0
-53.949974 -100.81073 71.169029 0 0 0
-50.649975 -102.19598 71.476082 0 0 0
-49.749973 -102.34726 71.769028 0 0 0
-49.449974 -102.19598 71.596222 0 0 0
-48.549976 -101.89598 71.286621 0 0 0
-48.249973 -102.00027 71.469032 0 0 0
-47.785965 -101.59598 71.169029 0 0 0
-47.049976 -101.36639 71.469032 0 0 0
-47.049976 -101.27002 71.169029 0 0 0
-46.207035 -100.39598 71.169029 0 0 0
-46.076656 -100.39598 71.769028 0 0 0
-45.249973 -98.937927 71.769028 0 0 0
-52.659973 -94.995987 75.069031 0 0 0
-52.749977 -95.29599 75.334381 0 0 0
-47.649975 -94.163239 71.469032 0 0 0
-47.927933 -94.095978 71.769028 0 0 0
-46.449974 -94.743347 71.769028 0 0 0
-47.349976 -94.247772 71.769028 0 0 0
-47.649975 -94.061005 71.169029 0 0 0
-45.440105 -95.895981 71.769028 0 0 0
-45.849976 -97.095978 75.265198 0 0 0
-45.741203 -99.195984 75.069031 0 0 0
-46.449974 -100.31772 75.369034 0 0 0
-47.049976 -101.06557 75.369034 0 0 0
-47.949974 -101.69441 75.369034 0 0 0
-46.449974 -100.14568 70.569031 0 0 0
-48.249973 -102.19598 74.781059 0 0 0
-48.849976 -102.19598 75.104713 0 0 0
-49.449974 -102.19598 75.21315 0 0 0
-50.446274 -102.19598 75.069031 0 0 0
-53.349976 -100.69598 75.002533 0 0 0
-52.449974 -102.19598 72.36631 0 0 0
-51.549976 -102.36198 72.069031 0 0 0
-53.949974 -101.25168 72.369034 0 0 0
-50.049976 -102.50336 72.369034 0 0 0
-49.449974 -102.45268 72.069031 0 0 0
-47.949974 -102.10344 72.369034 0 0 0
-47.049976 -101.47659 72.069031 0 0 0
-46.449974 -101.23531 72.369034 0 0 0
-45.849976 -100.64735 72.369034 0 0 0
-45.309052 -99.79599 72.369034 0 0 0
-44.949974 -97.995987 72.126259 0 0 0
-45.024223 -97.095978 72.069031 0 0 0
-46.749973 -94.198761 72.369034 0 0 0
-50.049976 -93.79599 71.803673 0 0 0
-50.049976 -93.545578 72.369034 0 0 0
-49.449974 -93.495987 72.305031 0 0 0
-49.149975 -93.601151 72.069031 0 0 0
-51.849976 -101.50327 75.369034 0 0 0
-45.307919 -95.895981 72.069031 0 0 0
-45.774509 -95.29599 72.069031 0 0 0
-51.249977 -101.89598 75.181129 0 0 0
-46.149975 -94.734436 72.369034 0 0 0
-45.652035 -96.195984 74.469032 0 0 0
-45.953293 -95.895981 74.769028 0 0 0
-47.949974 -93.920151 74.469032 0 0 0
-50.049976 -93.633698 74.469032 0 0 0
-47.049976 -94.395981 74.469757 0 0 0
-51.239681 -94.095978 74.769028 0 0 0
-51.249977 -93.977051 74.469032 0 0 0
-51.324444 -102.49599 72.969032 0 0 0
-53.124588 -101.89598 72.669029 0 0 0
-53.588459 -101.59598 72.669029 0 0 0
-50.649975 -102.58382 72.969032 0 0 0
-48.849976 -102.42558 72.669029 0 0 0
-48.549976 -102.53976 72.969032 0 0 0
-47.649975 -102.19598 72.791145 0 0 0
-46.749973 -101.75143 72.969032 0 0 0
-45.38139 -100.09598 72.969032 0 0 0
-45.713318 -99.195984 70.869034 0 0 0
-45.065281 -99.195984 72.669029 0 0 0
-44.901352 -98.29599 72.969032 0 0 0
-45.849976 -98.895981 70.792038 0 0 0
-44.934452 -97.095978 72.669029 0 0 0
-44.912319 -97.395981 72.969032 0 0 0
-51.375378 -94.095978 72.369034 0 0 0
-51.849976 -94.044083 72.969032 0 0 0
-46.003937 -99.79599 70.869034 0 0 0
-46.449974 -94.395981 72.585808 0 0 0
-50.815609 -93.79599 72.369034 0 0 0
-46.346146 -100.39598 70.869034 0 0 0
-47.649975 -93.684967 72.669029 0 0 0
-48.204227 -93.495987 72.969032 0 0 0
-47.049976 -93.947296 72.669029 0 0 0
-47.349976 -93.758133 72.969032 0 0 0
-45.296535 -95.895981 72.669029 0 0 0
-47.049976 -100.99599 70.739632 0 0 0
-45.328907 -97.395981 74.469032 0 0 0
-52.149975 -102.2605 73.269028 0 0 0
-45.439781 -98.29599 74.769028 0 0 0
-49.749973 -102.68239 73.569031 0 0 0
-49.149975 -102.62643 73.269028 0 0 0
-48.127331 -102.49599 73.569031 0 0 0
-47.349976 -102.14221 73.569031 0 0 0
-46.449974 -101.50598 73.269028 0 0 0
-45.849976 -100.83583 73.269028 0 0 0
-45.086006 -99.195984 73.269028 0 0 0
-45.109112 -96.79599 73.569031 0 0 0
-45.917385 -100.09598 74.769028 0 0 0
-52.449974 -94.34494 73.569031 0 0 0
-51.370834 -93.79599 73.569031 0 0 0
-46.987072 -94.095978 73.569031 0 0 0
-50.949974 -93.62619 73.269028 0 0 0
-49.749973 -93.409698 73.569031 0 0 0
-49.149975 -93.402969 73.569031 0 0 0
-45.549976 -95.595978 73.181946 0 0 0
-46.244808 -94.695984 73.269028 0 0 0
-46.502396 -100.99599 74.769028 0 0 0
-52.642986 -101.89598 73.869034 0 0 0
-52.967793 -101.59598 74.169029 0 0 0
-51.549976 -102.34758 73.869034 0 0 0
-48.849976 -102.60753 73.869034 0 0 0
-47.143982 -101.89598 74.169029 0 0 0
-46.749973 -101.59598 74.076378 0 0 0
-45.849976 -100.69598 73.798218 0 0 0
-47.349976 -101.89598 74.515831 0 0 0
-45.515606 -99.79599 74.169029 0 0 0
-45.218163 -99.195984 73.869034 0 0 0
-45.170101 -98.29599 74.169029 0 0 0
-45.100677 -97.395981 73.869034 0 0 0
-52.319225 -94.395981 74.169029 0 0 0
-46.449974 -94.695984 73.957237 0 0 0
-50.218956 -93.495987 73.869034 0 0 0
-49.224998 -93.495987 74.169029 0 0 0
-48.701847 -93.495987 73.869034 0 0 0
-47.661674 -93.79599 73.869034 0 0 0
-48.249973 -102.32288 74.469032 0 0 0
-46.264328 -94.995987 74.169029 0 0 0
-51.249977 -102.23404 74.469032 0 0 0
-51.849976 -101.89137 74.769028 0 0 0
-50.192928 -102.49599 74.469032 0 0 0
-49.449974 -102.54822 74.469032 0 0 0
-48.950924 -102.49599 74.469032 0 0 0
0 0 0 1 0 0 0 1 0 0 0 1 0 0 0 0 0 218 1 0 0
