ply
format ascii 1.0
comment PCL generated
element vertex 308
property float x
property float y
property float z
property uchar red
property uchar green
property uchar blue
element camera 1
property float view_px
property float view_py
property float view_pz
property float x_axisx
property float x_axisy
property float x_axisz
property float y_axisx
property float y_axisy
property float y_axisz
property float z_axisx
property float z_axisy
property float z_axisz
property float focal
property float scalex
property float scaley
property float centerx
property float centery
property int viewportx
property int viewporty
property float k1
property float k2
end_header
0.04761 0.040425513 -0.011721373 255 255 255
0.048583172 0.04040901 -0.011369559 255 255 255
0.04931308 0.040666744 -0.011169328 255 255 255
0.044746406 0.041384839 -0.011209711 255 255 255
0.045546964 0.041362338 -0.011572696 255 255 255
0.046522908 0.041456059 -0.011848961 255 255 255
0.047607433 0.041388597 -0.011864378 255 255 255
0.048589166 0.041380845 -0.011633993 255 255 255
0.04941747 0.041397404 -0.011230756 255 255 255
0.044724312 0.042358812 -0.011221954 255 255 255
0.045562554 0.042436406 -0.011568935 255 255 255
0.046520419 0.042440891 -0.011777184 255 255 255
0.047596961 0.042454213 -0.011785247 255 255 255
0.048554566 0.042410798 -0.01157434 255 255 255
0.04939574 0.04243442 -0.011208962 255 255 255
0.044861861 0.043212406 -0.011106566 255 255 255
0.045583289 0.043416239 -0.011339406 255 255 255
0.046589043 0.043465924 -0.011545101 255 255 255
0.0475602 0.043430001 -0.011563086 255 255 255
0.048557758 0.043420367 -0.011331813 255 255 255
0.04926496 0.043267515 -0.01110473 255 255 255
0.045863155 0.044098109 -0.011105042 255 255 255
0.04654685 0.044222083 -0.011182752 255 255 255
0.047606818 0.044232156 -0.01117467 255 255 255
0.048288845 0.044110835 -0.011100324 255 255 255
0.048993703 0.040007871 -0.01097919 255 255 255
0.049626667 0.040319499 -0.010804636 255 255 255
0.050360583 0.040447626 -0.01031431 255 255 255
0.043675903 0.041425232 -0.010367133 255 255 255
0.044227909 0.041436445 -0.010866464 255 255 255
0.04991224 0.041392487 -0.010911803 255 255 255
0.050457042 0.041380223 -0.010412432 255 255 255
0.043663472 0.04242925 -0.010353627 255 255 255
0.04422326 0.042542394 -0.010856383 255 255 255
0.049906719 0.042435676 -0.010888045 255 255 255
0.050450034 0.042453736 -0.010418097 255 255 255
0.043826994 0.04328258 -0.010239866 255 255 255
0.044472251 0.04351338 -0.010700542 255 255 255
0.045033529 0.043807872 -0.010923555 255 255 255
0.048993703 0.043860953 -0.01095275 255 255 255
0.049621962 0.043520618 -0.010753657 255 255 255
0.050275832 0.043386221 -0.010281844 255 255 255
0.044651736 0.044350252 -0.010320443 255 255 255
0.045527931 0.044509944 -0.010720543 255 255 255
0.046613652 0.04474549 -0.010845368 255 255 255
0.047591612 0.044736791 -0.010844057 255 255 255
0.048634119 0.044532847 -0.010693875 255 255 255
0.049507815 0.04434197 -0.010345666 255 255 255
0.050145634 0.044007871 -0.010068215 255 255 255
0.045667764 0.045144323 -0.010238099 255 255 255
0.046543259 0.045299239 -0.010335056 255 255 255
0.047607042 0.045304358 -0.010348469 255 255 255
0.048541076 0.045150843 -0.01022895 255 255 255
0.049193706 0.045007873 -0.010026909 255 255 255
0.042962365 0.040383223 -0.0092325713 255 255 255
0.043219466 0.040417604 -0.009696126 255 255 255
0.050820474 0.040367085 -0.0097105801 255 255 255
0.051149081 0.040547218 -0.0092363954 255 255 255
0.04288419 0.041407872 -0.0092338659 255 255 255
0.043162089 0.041452315 -0.0097405436 255 255 255
0.050944209 0.041392121 -0.009850109 255 255 255
0.051242322 0.041432887 -0.0093911448 255 255 255
0.04290079 0.042391546 -0.0092643052 255 255 255
0.043193366 0.042490609 -0.009745785 255 255 255
0.050929729 0.042516846 -0.0098634511 255 255 255
0.051235195 0.042404748 -0.0093958303 255 255 255
0.042993709 0.043086529 -0.0091030188 255 255 255
0.043401185 0.043433089 -0.0095935827 255 255 255
0.050780933 0.043522581 -0.009585754 255 255 255
0.051120721 0.043204959 -0.0092488751 255 255 255
0.043793973 0.044338465 -0.0094368979 255 255 255
0.044312917 0.044695262 -0.0097192861 255 255 255
0.049844597 0.044701301 -0.0097455531 255 255 255
0.050375745 0.044373699 -0.0094556008 255 255 255
0.044682257 0.045220368 -0.0094229113 255 255 255
0.045553416 0.045624215 -0.0095549952 255 255 255
0.046537057 0.045785416 -0.0097306939 255 255 255
0.047637455 0.045802094 -0.0097565111 255 255 255
0.048617616 0.045660723 -0.0095522003 255 255 255
0.049477886 0.045283657 -0.0094233016 255 255 255
0.050090734 0.045007873 -0.0091235554 255 255 255
0.04593337 0.046024408 -0.0091565708 255 255 255
0.046615459 0.046116956 -0.0092397761 255 255 255
0.047572624 0.046112571 -0.0092607457 255 255 255
0.048307791 0.046019483 -0.0091674244 255 255 255
0.050884292 0.039329983 -0.008565031 255 255 255
0.051152784 0.039770905 -0.0083374493 255 255 255
0.042686716 0.040485837 -0.0085817333 255 255 255
0.051369347 0.040432259 -0.0085120229 255 255 255
0.042615268 0.041392412 -0.0085358666 255 255 255
0.051587369 0.041417025 -0.00853243 255 255 255
0.042656757 0.042453658 -0.0085661393 255 255 255
0.051588137 0.042427562 -0.0085110012 255 255 255
0.042837802 0.043372482 -0.0084765274 255 255 255
0.04311236 0.043774594 -0.00881036 255 255 255
0.050993703 0.043910351 -0.0089235557 255 255 255
0.051339336 0.043402422 -0.0085312082 255 255 255
0.042993709 0.044007871 -0.008146299 255 255 255
0.043425996 0.044477656 -0.0085718138 255 255 255
0.050744183 0.04452486 -0.0086042536 255 255 255
0.051140353 0.044065576 -0.0083157774 255 255 255
0.043851495 0.045166623 -0.0083407843 255 255 255
0.044508182 0.045594394 -0.0085890954 255 255 255
0.045212507 0.045904607 -0.0088735558 255 255 255
0.048927039 0.04592523 -0.0088568889 255 255 255
0.049613167 0.045633305 -0.0085828276 255 255 255
0.050272468 0.045159616 -0.0084265759 255 255 255
0.044966444 0.046022005 -0.0082252715 255 255 255
0.045612335 0.046193156 -0.0084969336 255 255 255
0.046570491 0.046399716 -0.008533529 255 255 255
0.04760205 0.04640251 -0.0085455393 255 255 255
0.048543949 0.046194624 -0.0085080834 255 255 255
0.049175825 0.046015956 -0.0082735559 255 255 255
0.042244662 0.039541207 -0.0075631104 255 255 255
0.050925657 0.03919784 -0.0075700241 255 255 255
0.051174767 0.039616775 -0.0075346669 255 255 255
0.042388842 0.040570837 -0.0076915422 255 255 255
0.051506836 0.040404208 -0.0075622643 255 255 255
0.042388014 0.041421887 -0.0075484416 255 255 255
0.051747944 0.041434344 -0.007518298 255 255 255
0.042424757 0.042419516 -0.0074752057 255 255 255
0.05173685 0.04240787 -0.0075235558 255 255 255
0.042611208 0.043464195 -0.0075165136 255 255 255
0.051523719 0.043408319 -0.0075317691 255 255 255
0.04286493 0.044260461 -0.0074505126 255 255 255
0.043199696 0.044702791 -0.0076308907 255 255 255
0.050883215 0.044704165 -0.007545542 255 255 255
0.05119459 0.044211764 -0.007523919 255 255 255
0.043678455 0.045287639 -0.0075037442 255 255 255
0.044302102 0.045779031 -0.0075869127 255 255 255
0.049776044 0.045786805 -0.0075708004 255 255 255
0.0503878 0.045290466 -0.0075022974 255 255 255
0.044786025 0.046084281 -0.0074879774 255 255 255
0.045543071 0.046397872 -0.0075575332 255 255 255
0.046559326 0.046620402 -0.007526299 255 255 255
0.04759087 0.046612263 -0.0075399065 255 255 255
0.048608042 0.046382818 -0.0075438577 255 255 255
0.049290802 0.046100907 -0.0074860547 255 255 255
0.042390719 0.039486114 -0.0064742826 255 255 255
0.050855082 0.039230708 -0.0064367964 255 255 255
0.051146362 0.03967841 -0.0065601058 255 255 255
0.042338002 0.040343441 -0.0063795559 255 255 255
0.051450752 0.040425673 -0.0065209642 255 255 255
0.042296231 0.041444231 -0.0065817372 255 255 255
0.051654704 0.041424125 -0.0064692846 255 255 255
0.042342734 0.042528309 -0.0065004108 255 255 255
0.051639982 0.04243283 -0.0064758686 255 255 255
0.04247212 0.04341922 -0.0065400782 255 255 255
0.0514304 0.043439239 -0.0064927172 255 255 255
0.042829599 0.044305924 -0.0065304548 255 255 255
0.043191008 0.044787906 -0.0064408225 255 255 255
0.05085399 0.044624884 -0.0064515048 255 255 255
0.05115163 0.044170573 -0.0066018337 255 255 255
0.043664172 0.045297079 -0.0065563414 255 255 255
0.044321258 0.045806155 -0.0064673102 255 255 255
0.049754713 0.045777984 -0.0064356443 255 255 255
0.050370265 0.045267366 -0.0065667569 255 255 255
0.044816956 0.046103671 -0.0065749846 255 255 255
0.045553867 0.046400741 -0.0065090568 255 255 255
0.046561629 0.046609726 -0.00653583 255 255 255
0.047586575 0.046597131 -0.0065317359 255 255 255
0.048585311 0.046374392 -0.0064823669 255 255 255
0.049276873 0.046096567 -0.006609824 255 255 255
0.043681126 0.038548086 -0.0053538252 255 255 255
0.049594644 0.038387682 -0.00549648 255 255 255
0.050245121 0.038770702 -0.0057735033 255 255 255
0.042811424 0.039599709 -0.0056213839 255 255 255
0.043277521 0.039365273 -0.0052223317 255 255 255
0.049993705 0.039007872 -0.0050413646 255 255 255
0.050611261 0.039423764 -0.0054948465 255 255 255
0.051055044 0.039807871 -0.0059235566 255 255 255
0.042653091 0.04043581 -0.0054854676 255 255 255
0.043071687 0.040007871 -0.0051235557 255 255 255
0.050941098 0.040225569 -0.0052685672 255 255 255
0.05123369 0.040498052 -0.0056763985 255 255 255
0.042511869 0.041421659 -0.0054620095 255 255 255
0.051340979 0.041408591 -0.0054792748 255 255 255
0.042560894 0.042408183 -0.0054870453 255 255 255
0.051333785 0.042434625 -0.005474722 255 255 255
0.042779066 0.043445647 -0.0055397772 255 255 255
0.043123268 0.043784518 -0.005150198 255 255 255
0.05093528 0.043620411 -0.0052973484 255 255 255
0.051216975 0.043353792 -0.0056870445 255 255 255
0.042953789 0.044127639 -0.005798433 255 255 255
0.043404683 0.044515878 -0.005466362 255 255 255
0.049993705 0.044843085 -0.0050890613 255 255 255
0.050587054 0.044425104 -0.0055058245 255 255 255
0.051053584 0.044007871 -0.0059235566 255 255 255
0.04383203 0.045149468 -0.0056613185 255 255 255
0.044512562 0.045578297 -0.0054679783 255 255 255
0.045343705 0.045898214 -0.005174879 255 255 255
0.048836544 0.045829013 -0.0052074748 255 255 255
0.049571488 0.045510974 -0.0054987045 255 255 255
0.05020212 0.045107745 -0.0057428419 255 255 255
0.044950575 0.046030089 -0.0058570984 255 255 255
0.045658771 0.046191394 -0.0055757528 255 255 255
0.046588823 0.04634735 -0.0055064489 255 255 255
0.047626033 0.04631706 -0.005494385 255 255 255
0.048505228 0.046158373 -0.0056120842 255 255 255
0.049109958 0.046007872 -0.0058440333 255 255 255
0.043993704 0.038809735 -0.0049235565 255 255 255
0.044647202 0.038620263 -0.0046718013 255 255 255
0.045559585 0.038396299 -0.004490681 255 255 255
0.046568081 0.038278963 -0.0043589473 255 255 255
0.047621168 0.038304519 -0.0044047944 255 255 255
0.048553839 0.038458481 -0.0045698863 255 255 255
0.049405478 0.038738463 -0.0047816769 255 255 255
0.043725479 0.039502438 -0.0046979543 255 255 255
0.044420864 0.039303169 -0.004268046 255 255 255
0.045193706 0.039007872 -0.0040312517 255 255 255
0.048873704 0.039069407 -0.0041015693 255 255 255
0.04966573 0.039325137 -0.0044332733 255 255 255
0.050271273 0.039609849 -0.0047794729 255 255 255
0.042967681 0.04074746 -0.0048918533 255 255 255
0.043454386 0.040409628 -0.004483616 255 255 255
0.044024955 0.040007871 -0.0041235564 255 255 255
0.049946517 0.040135782 -0.0041018655 255 255 255
0.050496221 0.040427137 -0.0045208912 255 255 255
0.042881094 0.041443363 -0.0048118536 255 255 255
0.043294143 0.041341204 -0.0043151309 255 255 255
0.050685827 0.041405994 -0.0044293627 255 255 255
0.05107642 0.04150787 -0.0049235565 255 255 255
0.042915162 0.042385526 -0.0047956868 255 255 255
0.043271679 0.042500462 -0.0043404168 255 255 255
0.050694067 0.042405274 -0.0044425759 255 255 255
0.051072862 0.042307876 -0.0049235565 255 255 255
0.042983033 0.043087546 -0.0049187732 255 255 255
0.043490972 0.043437224 -0.0044502444 255 255 255
0.049930003 0.04374605 -0.0041361349 255 255 255
0.050489318 0.043423966 -0.0045571034 255 255 255
0.043793969 0.044296332 -0.004689774 255 255 255
0.044426393 0.044555258 -0.004322127 255 255 255
0.045193706 0.044862784 -0.0040745372 255 255 255
0.048876114 0.044808157 -0.0041424236 255 255 255
0.049633089 0.044534545 -0.0044525666 255 255 255
0.050239116 0.04419627 -0.0047560944 255 255 255
0.044677936 0.045198686 -0.0047431439 255 255 255
0.045574386 0.045473188 -0.0045153587 255 255 255
0.046577498 0.045597639 -0.0043921005 255 255 255
0.047621675 0.045564532 -0.0044319066 255 255 255
0.048569329 0.045366734 -0.00454664 255 255 255
0.04936311 0.045148116 -0.0048160641 255 255 255
0.045993704 0.046007872 -0.0049926396 255 255 255
0.046635322 0.046031956 -0.0048898817 255 255 255
0.047444191 0.046017379 -0.0049190084 255 255 255
0.045820467 0.038839094 -0.0039273212 255 255 255
0.046656206 0.038781814 -0.0038552163 255 255 255
0.047493707 0.038798138 -0.0038821176 255 255 255
0.048193704 0.0389397 -0.0039235568 255 255 255
0.044788215 0.039654959 -0.003792268 255 255 255
0.045576464 0.039448667 -0.0035859859 255 255 255
0.046590116 0.039465647 -0.0033845638 255 255 255
0.047598895 0.039439049 -0.0034455748 255 255 255
0.048561074 0.039494704 -0.0036656994 255 255 255
0.049317699 0.039713796 -0.003878582 255 255 255
0.043941777 0.040701237 -0.0038467441 255 255 255
0.044555288 0.040434547 -0.0035478235 255 255 255
0.045498312 0.040323958 -0.0031569607 255 255 255
0.046525564 0.040041205 -0.0030749531 255 255 255
0.047739159 0.040117353 -0.0030983498 255 255 255
0.048621267 0.040386602 -0.0032401879 255 255 255
0.049507115 0.040441073 -0.0036651324 255 255 255
0.050054289 0.040807873 -0.0039235568 255 255 255
0.043792166 0.041467484 -0.0037992552 255 255 255
0.044542894 0.041414358 -0.0032991758 255 255 255
0.045193706 0.041107871 -0.0030232421 255 255 255
0.048877552 0.041389689 -0.0030885478 255 255 255
0.049579494 0.041416246 -0.0034628154 255 255 255
0.050186682 0.041449141 -0.0038963051 255 255 255
0.043807432 0.042420555 -0.0037916512 255 255 255
0.044566996 0.042449094 -0.0032859286 255 255 255
0.045193706 0.04280787 -0.0030280526 255 255 255
0.048876286 0.0425198 -0.0030858635 255 255 255
0.049553245 0.042420741 -0.0034390655 255 255 255
0.050190646 0.042345203 -0.0038927398 255 255 255
0.043935068 0.043172516 -0.0038745813 255 255 255
0.04454203 0.043449301 -0.003567582 255 255 255
0.045465317 0.043512046 -0.0031639861 255 255 255
0.046482589 0.043824159 -0.0030708909 255 255 255
0.0476944 0.043735877 -0.0030809233 255 255 255
0.048635174 0.043472003 -0.0032327126 255 255 255
0.049515031 0.043402433 -0.0036724159 255 255 255
0.050072934 0.043007873 -0.0039235568 255 255 255
0.044793054 0.044205539 -0.0037965081 255 255 255
0.045561451 0.044427406 -0.0036042198 255 255 255
0.046587504 0.044477694 -0.0034344005 255 255 255
0.047596414 0.044471446 -0.0034771364 255 255 255
0.04854795 0.044373509 -0.0036749232 255 255 255
0.049256459 0.044134703 -0.0038721056 255 255 255
0.045905363 0.045014318 -0.0039360248 255 255 255
0.04663986 0.045102533 -0.0038910897 255 255 255
0.047548875 0.045059096 -0.0039022134 255 255 255
0.045779597 0.04076555 -0.002920181 255 255 255
0.046618689 0.040500879 -0.0028894823 255 255 255
0.047550589 0.040556233 -0.0029045998 255 255 255
0.048163313 0.04084054 -0.0029320158 255 255 255
0.045589741 0.041449979 -0.002860771 255 255 255
0.04656205 0.041378211 -0.0027042623 255 255 255
0.047592841 0.041421063 -0.0027328366 255 255 255
0.048381872 0.04141115 -0.0029064533 255 255 255
0.045586541 0.042400058 -0.0028603787 255 255 255
0.046571329 0.042447958 -0.0026932664 255 255 255
0.047595304 0.042413626 -0.0027244517 255 255 255
0.048370287 0.042452283 -0.0028977171 255 255 255
0.045854647 0.043144882 -0.0029210958 255 255 255
0.046623491 0.043326069 -0.0028782857 255 255 255
0.047560964 0.043271694 -0.0028906898 255 255 255
0.048293706 0.043107875 -0.0029889825 255 255 255
0 0 0 1 0 0 0 1 0 0 0 1 0 0 0 0 0 308 1 0 0
