ply
format ascii 1.0
comment PCL generated
element vertex 142
property float x
property float y
property float z
property uchar red
property uchar green
property uchar blue
element camera 1
property float view_px
property float view_py
property float view_pz
property float x_axisx
property float x_axisy
property float x_axisz
property float y_axisx
property float y_axisy
property float y_axisz
property float z_axisx
property float z_axisy
property float z_axisz
property float focal
property float scalex
property float scaley
property float centerx
property float centery
property int viewportx
property int viewporty
property float k1
property float k2
end_header
-0.026206283 0.012807876 -0.03902017 255 255 255
-0.025806282 0.012807876 -0.039009165 255 255 255
-0.026290493 0.013386823 -0.039035536 255 255 255
-0.025739612 0.013307874 -0.03901818 255 255 255
-0.027299313 0.011607083 -0.038270429 255 255 255
-0.026354447 0.011460745 -0.038401742 255 255 255
-0.025430422 0.011531943 -0.038357552 255 255 255
-0.024633747 0.011681309 -0.038144376 255 255 255
-0.028156912 0.012507127 -0.038193759 255 255 255
-0.027452124 0.012375223 -0.038596049 255 255 255
-0.026474487 0.012364126 -0.038873032 255 255 255
-0.025399715 0.012419358 -0.03880037 255 255 255
-0.024444925 0.012458797 -0.038372219 255 255 255
-0.023949487 0.012807876 -0.038123552 255 255 255
-0.028228184 0.013442995 -0.038276393 255 255 255
-0.027467407 0.013419393 -0.038747173 255 255 255
-0.026772948 0.013474543 -0.038990553 255 255 255
-0.025301801 0.013435652 -0.038912755 255 255 255
-0.024400825 0.013433889 -0.038497522 255 255 255
-0.023860285 0.013363431 -0.038079783 255 255 255
-0.028151682 0.014220065 -0.038201839 255 255 255
-0.027428497 0.014462339 -0.03854581 255 255 255
-0.026423292 0.014428071 -0.038829129 255 255 255
-0.025421763 0.014437093 -0.038740393 255 255 255
-0.024475044 0.014389942 -0.038332783 255 255 255
-0.023991104 0.014007876 -0.038123552 255 255 255
-0.02730909 0.015157559 -0.038204934 255 255 255
-0.026417635 0.015305215 -0.038334526 255 255 255
-0.02546384 0.015271396 -0.03827741 255 255 255
-0.02478995 0.015114325 -0.038132086 255 255 255
-0.027300283 0.01073761 -0.037315812 255 255 255
-0.026386237 0.010675626 -0.037528191 255 255 255
-0.025406994 0.010722053 -0.03749714 255 255 255
-0.024730116 0.010793118 -0.03728269 255 255 255
-0.02826483 0.011548908 -0.037432667 255 255 255
-0.027558673 0.011212589 -0.03773959 255 255 255
-0.026719695 0.011007876 -0.037951905 255 255 255
-0.025199439 0.011062578 -0.037913531 255 255 255
-0.02434524 0.011338145 -0.037623167 255 255 255
-0.023791621 0.011668677 -0.037306748 255 255 255
-0.029022427 0.012624248 -0.037139568 255 255 255
-0.028646674 0.012380947 -0.037597355 255 255 255
-0.024016447 0.012076011 -0.037927479 255 255 255
-0.023578249 0.012417726 -0.037526906 255 255 255
-0.029048314 0.013415139 -0.037243471 255 255 255
-0.028759558 0.01341767 -0.037697848 255 255 255
-0.023448104 0.013411359 -0.037539367 255 255 255
-0.02900628 0.014089753 -0.037096858 255 255 255
-0.028535584 0.014501714 -0.037578076 255 255 255
-0.024093432 0.014725111 -0.037893716 255 255 255
-0.023608571 0.014401791 -0.037486918 255 255 255
-0.028179221 0.015233442 -0.037374042 255 255 255
-0.027514093 0.015591812 -0.037585296 255 255 255
-0.026467718 0.015830176 -0.037788164 255 255 255
-0.025340004 0.015768934 -0.037679907 255 255 255
-0.024463683 0.015421525 -0.037512571 255 255 255
-0.02383641 0.015057742 -0.037249368 255 255 255
-0.02711699 0.016027419 -0.037199859 255 255 255
-0.026426494 0.016100582 -0.03731868 255 255 255
-0.025527356 0.016060485 -0.037232045 255 255 255
-0.02808173 0.010827584 -0.036449105 255 255 255
-0.027449939 0.010514286 -0.036538072 255 255 255
-0.026438938 0.010414572 -0.036625467 255 255 255
-0.025295755 0.010461274 -0.036561348 255 255 255
-0.024548495 0.01067593 -0.036471028 255 255 255
-0.02900628 0.011882686 -0.03631933 255 255 255
-0.028578514 0.01136126 -0.036532916 255 255 255
-0.024069006 0.011048639 -0.036562033 255 255 255
-0.023641186 0.01152329 -0.036526196 255 255 255
-0.029161939 0.012430088 -0.036520597 255 255 255
-0.028959112 0.012074542 -0.036856886 255 255 255
-0.023179527 0.012438104 -0.03650593 255 255 255
-0.029265905 0.013400734 -0.036559235 255 255 255
-0.023061818 0.013492338 -0.03659353 255 255 255
-0.022980914 0.013265018 -0.036209263 255 255 255
-0.02910264 0.014297084 -0.036490623 255 255 255
-0.028874082 0.014714349 -0.036650825 255 255 255
-0.023273507 0.014487951 -0.036502745 255 255 255
-0.028394157 0.015417217 -0.036498036 255 255 255
-0.027816312 0.015877502 -0.036666412 255 255 255
-0.024307489 0.015742848 -0.03658817 255 255 255
-0.023705363 0.015254194 -0.036468197 255 255 255
-0.027345637 0.016142981 -0.036514141 255 255 255
-0.026411075 0.016358044 -0.03651464 255 255 255
-0.02541668 0.016268501 -0.036536917 255 255 255
-0.024776952 0.016038114 -0.036503438 255 255 255
-0.028131602 0.010814171 -0.035523556 255 255 255
-0.027438046 0.01050622 -0.035493705 255 255 255
-0.026480794 0.010257288 -0.035452034 255 255 255
-0.025346482 0.010230055 -0.035804279 255 255 255
-0.029010007 0.011846929 -0.035533413 255 255 255
-0.028669219 0.011335293 -0.035449844 255 255 255
-0.029204389 0.012386851 -0.035498828 255 255 255
-0.029330583 0.013407878 -0.035523549 255 255 255
-0.029135132 0.014365851 -0.0355452 255 255 255
-0.028916551 0.01479404 -0.035409268 255 255 255
-0.023241244 0.014462904 -0.035507571 255 255 255
-0.028432302 0.01544447 -0.035566792 255 255 255
-0.027836313 0.015899545 -0.035273556 255 255 255
-0.024274737 0.015741685 -0.035452381 255 255 255
-0.023695849 0.015233784 -0.035510872 255 255 255
-0.027389383 0.016163077 -0.035553429 255 255 255
-0.026406357 0.016373234 -0.035513993 255 255 255
-0.025400378 0.016279228 -0.035466712 255 255 255
-0.024741359 0.016075635 -0.035650689 255 255 255
-0.02800628 0.010914542 -0.034823552 255 255 255
-0.027362021 0.010701994 -0.034561817 255 255 255
-0.026696062 0.010256666 -0.034488056 255 255 255
-0.028417777 0.011483306 -0.034585379 255 255 255
-0.027681421 0.011046758 -0.034250632 255 255 255
-0.029089915 0.012529021 -0.034724619 255 255 255
-0.028777583 0.012296364 -0.034318905 255 255 255
-0.029129127 0.013415337 -0.034590866 255 255 255
-0.028866319 0.013382876 -0.034082931 255 255 255
-0.029043663 0.014138992 -0.034713823 255 255 255
-0.02873488 0.014504047 -0.03439239 255 255 255
-0.028268974 0.015270466 -0.034576859 255 255 255
-0.027484238 0.015744936 -0.034439161 255 255 255
-0.026404509 0.01585377 -0.034207597 255 255 255
-0.025294261 0.015782678 -0.034295902 255 255 255
-0.024433484 0.015459487 -0.034503467 255 255 255
-0.023816451 0.015087335 -0.034772582 255 255 255
-0.027220745 0.016042758 -0.03479366 255 255 255
-0.026384041 0.016121764 -0.034675721 255 255 255
-0.025509723 0.016095277 -0.034753591 255 255 255
-0.024964746 0.016007876 -0.034923553 255 255 255
-0.02810628 0.011763426 -0.033876974 255 255 255
-0.027338114 0.011402302 -0.033537026 255 255 255
-0.028303122 0.01242934 -0.033660758 255 255 255
-0.027623694 0.012330666 -0.03318147 255 255 255
-0.02840481 0.013402614 -0.033573963 255 255 255
-0.027817616 0.013411152 -0.033094022 255 255 255
-0.028263537 0.014352946 -0.033690721 255 255 255
-0.027496548 0.014510863 -0.033263218 255 255 255
-0.026431285 0.014733735 -0.033120226 255 255 255
-0.028022995 0.015024225 -0.033908278 255 255 255
-0.027393337 0.015242098 -0.03373038 255 255 255
-0.026410485 0.015352936 -0.033633664 255 255 255
-0.025432076 0.015292794 -0.033679359 255 255 255
-0.02461783 0.015093419 -0.033798888 255 255 255
-0.027305895 0.013388854 -0.032849565 255 255 255
-0.027184296 0.014071374 -0.032928411 255 255 255
0 0 0 1 0 0 0 1 0 0 0 1 0 0 0 0 0 142 1 0 0
