ply
format ascii 1.0
comment PCL generated
element vertex 333
property float x
property float y
property float z
property uchar red
property uchar green
property uchar blue
element camera 1
property float view_px
property float view_py
property float view_pz
property float x_axisx
property float x_axisy
property float x_axisz
property float y_axisx
property float y_axisy
property float y_axisz
property float z_axisx
property float z_axisy
property float z_axisz
property float focal
property float scalex
property float scaley
property float centerx
property float centery
property int viewportx
property int viewporty
property float k1
property float k2
end_header
-0.042135093 0.04678034 -0.0080947839 255 255 255
-0.041395076 0.046634037 -0.0081838118 255 255 255
-0.040385701 0.046612438 -0.0081959972 255 255 255
-0.039552037 0.046755936 -0.0081238616 255 255 255
-0.043006282 0.047707871 -0.0080501493 255 255 255
-0.042416494 0.047447909 -0.0082402481 255 255 255
-0.041455008 0.047420703 -0.0084995572 255 255 255
-0.040416755 0.047417928 -0.0085382415 255 255 255
-0.03938723 0.047391575 -0.0083261421 255 255 255
-0.038688853 0.047563791 -0.0081219878 255 255 255
-0.043089941 0.048474655 -0.0081115076 255 255 255
-0.0424488 0.048397146 -0.0084112165 255 255 255
-0.041399769 0.048409071 -0.0087067792 255 255 255
-0.040398169 0.04839325 -0.0087308567 255 255 255
-0.039398499 0.048384111 -0.0085360548 255 255 255
-0.038551763 0.048442278 -0.0082073919 255 255 255
-0.043071184 0.0492987 -0.0080948994 255 255 255
-0.04245279 0.049436528 -0.0083746491 255 255 255
-0.041420247 0.049422093 -0.008672514 255 255 255
-0.040401082 0.049400575 -0.0087151239 255 255 255
-0.039394725 0.049442414 -0.008500657 255 255 255
-0.038588926 0.049356833 -0.0081915669 255 255 255
-0.043006282 0.050007872 -0.008004643 255 255 255
-0.042331386 0.050333917 -0.0082023377 255 255 255
-0.041433737 0.050412428 -0.0084129544 255 255 255
-0.040397726 0.05041723 -0.0084617147 255 255 255
-0.039487127 0.050471451 -0.0082435813 255 255 255
-0.038802482 0.050171919 -0.0081012957 255 255 255
-0.04200628 0.051007871 -0.0080271484 255 255 255
-0.041350424 0.051100101 -0.008121524 255 255 255
-0.040360127 0.051106103 -0.0081386939 255 255 255
-0.039729606 0.051007871 -0.0080686966 255 255 255
-0.042350393 0.045719992 -0.0072390633 255 255 255
-0.041406795 0.045560554 -0.0073809838 255 255 255
-0.040366273 0.045547545 -0.0074029709 255 255 255
-0.039442763 0.045618992 -0.0073003178 255 255 255
-0.038727943 0.045842528 -0.0071500246 255 255 255
-0.043288901 0.046593133 -0.0073385709 255 255 255
-0.042502798 0.046364915 -0.0076699243 255 255 255
-0.041452829 0.046149932 -0.0078700585 255 255 255
-0.040421132 0.046128802 -0.0078831688 255 255 255
-0.039330341 0.04628719 -0.0077712201 255 255 255
-0.038460638 0.046481296 -0.0074911858 255 255 255
-0.037775807 0.046773307 -0.0071759881 255 255 255
-0.044084076 0.047641814 -0.0071488931 255 255 255
-0.043479145 0.047421504 -0.0076146177 255 255 255
-0.042845946 0.047143847 -0.0079466533 255 255 255
-0.038284525 0.047312811 -0.0078081414 255 255 255
-0.037553512 0.047490705 -0.0073484248 255 255 255
-0.044140331 0.048428923 -0.0072717485 255 255 255
-0.043618727 0.048387114 -0.0077318316 255 255 255
-0.038070954 0.048287872 -0.0079185069 255 255 255
-0.037407074 0.048432846 -0.007414497 255 255 255
-0.044132579 0.049360804 -0.0072372756 255 255 255
-0.043609235 0.049449015 -0.0077022887 255 255 255
-0.038129982 0.04952978 -0.0079096267 255 255 255
-0.037467171 0.049389675 -0.0074228239 255 255 255
-0.044031549 0.050074536 -0.0071545467 255 255 255
-0.043447815 0.050427843 -0.0075040595 255 255 255
-0.04269756 0.050700258 -0.007893594 255 255 255
-0.039095808 0.050819434 -0.0079314001 255 255 255
-0.038399942 0.050527174 -0.0076816445 255 255 255
-0.037690334 0.050313924 -0.0072861263 255 255 255
-0.043213133 0.051226329 -0.0072308765 255 255 255
-0.042465121 0.051461134 -0.0075069033 255 255 255
-0.041447636 0.051617175 -0.0077339206 255 255 255
-0.04041988 0.051660772 -0.0077438732 255 255 255
-0.039446201 0.051503781 -0.007545128 255 255 255
-0.038569856 0.051222559 -0.007289235 255 255 255
-0.042163264 0.052057859 -0.0071247006 255 255 255
-0.041388638 0.052146267 -0.0072576641 255 255 255
-0.040388398 0.052131284 -0.0072429129 255 255 255
-0.039727256 0.052023064 -0.0071281698 255 255 255
-0.042179391 0.044872902 -0.0062381746 255 255 255
-0.04140386 0.0447427 -0.0063582766 255 255 255
-0.040415019 0.044744063 -0.0063923113 255 255 255
-0.039510954 0.044841401 -0.0062916293 255 255 255
-0.038806278 0.044984512 -0.0061235554 255 255 255
-0.043345187 0.045662425 -0.0064049819 255 255 255
-0.042481344 0.04528854 -0.0066597606 255 255 255
-0.041476961 0.045071516 -0.0068395566 255 255 255
-0.040406283 0.045040362 -0.006877461 255 255 255
-0.039294634 0.045178808 -0.0067402381 255 255 255
-0.038438074 0.045465883 -0.006501256 255 255 255
-0.037759181 0.045790218 -0.006239885 255 255 255
-0.044200052 0.046592433 -0.006366008 255 255 255
-0.043651272 0.046249088 -0.0067329318 255 255 255
-0.038048372 0.046092682 -0.0069020577 255 255 255
-0.037443791 0.046408944 -0.0065597463 255 255 255
-0.044502083 0.047444642 -0.006531144 255 255 255
-0.037098635 0.047322873 -0.0068265852 255 255 255
-0.036721032 0.047448464 -0.0063646925 255 255 255
-0.045006279 0.048407871 -0.0060058665 255 255 255
-0.044666946 0.048420899 -0.0065830653 255 255 255
-0.037006281 0.048007872 -0.0069663585 255 255 255
-0.036616191 0.048404031 -0.0064928317 255 255 255
-0.045006279 0.049107872 -0.0060056439 255 255 255
-0.044634778 0.049439047 -0.0065575037 255 255 255
-0.037021413 0.04965787 -0.0069185332 255 255 255
-0.036646459 0.049402095 -0.0064740339 255 255 255
-0.044345468 0.050430469 -0.0065214699 255 255 255
-0.043885808 0.050779134 -0.0069235549 255 255 255
-0.037269372 0.050533865 -0.0066975402 255 255 255
-0.036762424 0.050205626 -0.006274716 255 255 255
-0.04406476 0.051209126 -0.0063069924 255 255 255
-0.043578845 0.051547945 -0.0065577859 255 255 255
-0.042868562 0.051852226 -0.0069235554 255 255 255
-0.039072949 0.051865395 -0.006940953 255 255 255
-0.038302496 0.051631808 -0.006644642 255 255 255
-0.037612248 0.051270593 -0.0063906088 255 255 255
-0.043186121 0.052104194 -0.0063049118 255 255 255
-0.042424269 0.052393708 -0.0064922506 255 255 255
-0.041420691 0.052633293 -0.0065369233 255 255 255
-0.04040869 0.052577458 -0.0065376083 255 255 255
-0.039443605 0.052333642 -0.0065030484 255 255 255
-0.038666487 0.052114312 -0.006313514 255 255 255
-0.043077823 0.044881236 -0.0052664313 255 255 255
-0.04241965 0.044627339 -0.0054632518 255 255 255
-0.041435871 0.04435955 -0.0054995441 255 255 255
-0.040512454 0.044457529 -0.0056369281 255 255 255
-0.03935048 0.044663031 -0.0057050008 255 255 255
-0.038472258 0.044768203 -0.0054662349 255 255 255
-0.044092357 0.045718793 -0.0053899987 255 255 255
-0.043491676 0.045299564 -0.0055855839 255 255 255
-0.042824231 0.045007873 -0.0059420047 255 255 255
-0.03823841 0.04507377 -0.0057767006 255 255 255
-0.037452549 0.045430146 -0.005588932 255 255 255
-0.044535451 0.046417437 -0.0055396399 255 255 255
-0.037088558 0.046092231 -0.005839936 255 255 255
-0.045100272 0.047567714 -0.0053765797 255 255 255
-0.044868428 0.047265377 -0.0057604769 255 255 255
-0.045175359 0.048403747 -0.0055499459 255 255 255
-0.036137305 0.048432272 -0.0056660762 255 255 255
-0.04515709 0.049437616 -0.0054602148 255 255 255
-0.044945616 0.049741205 -0.0058568898 255 255 255
-0.036173385 0.049462032 -0.0056077954 255 255 255
-0.04503759 0.050182261 -0.0052979919 255 255 255
-0.044787332 0.050528098 -0.0056027346 255 255 255
-0.037006281 0.050956771 -0.0059235566 255 255 255
-0.036495779 0.050413091 -0.0055070077 255 255 255
-0.044332128 0.051433887 -0.0054903552 255 255 255
-0.043840438 0.051847734 -0.0058341306 255 255 255
-0.03800628 0.051967982 -0.0059235566 255 255 255
-0.037357148 0.051562026 -0.0055844313 255 255 255
-0.036845088 0.051084448 -0.005351692 255 255 255
-0.044002827 0.052007873 -0.0051235557 255 255 255
-0.043400366 0.052342955 -0.0055331863 255 255 255
-0.04252734 0.052800134 -0.0056180032 255 255 255
-0.041442644 0.052946504 -0.0057962835 255 255 255
-0.040297192 0.052912582 -0.0058194916 255 255 255
-0.039383158 0.0527866 -0.0055957907 255 255 255
-0.03839121 0.052383058 -0.005526016 255 255 255
-0.037800837 0.052094877 -0.0053187083 255 255 255
-0.042177521 0.053021546 -0.0052338964 255 255 255
-0.041386437 0.053076237 -0.0053824103 255 255 255
-0.040429808 0.053080227 -0.0053583062 255 255 255
-0.039676752 0.053022236 -0.0051679024 255 255 255
-0.038332518 0.043822762 -0.0041798442 255 255 255
-0.043199468 0.044793807 -0.0044961087 255 255 255
-0.042473231 0.044417027 -0.004522732 255 255 255
-0.041488491 0.044153754 -0.0045628888 255 255 255
-0.040414866 0.044217266 -0.0045166789 255 255 255
-0.039406285 0.044245318 -0.004486593 255 255 255
-0.038290534 0.044195127 -0.0046383082 255 255 255
-0.044229981 0.045604888 -0.0045083989 255 255 255
-0.043679208 0.045137227 -0.0045926613 255 255 255
-0.045025118 0.046770532 -0.0045124143 255 255 255
-0.044742599 0.046299979 -0.0045670704 255 255 255
-0.045241147 0.047409695 -0.0045182826 255 255 255
-0.045410581 0.048391942 -0.0045356085 255 255 255
-0.045364197 0.049415223 -0.0045407335 255 255 255
-0.045138691 0.050355054 -0.004518549 255 255 255
-0.044931054 0.050800566 -0.0046378421 255 255 255
-0.036222246 0.050631978 -0.0047203004 255 255 255
-0.044555925 0.051476918 -0.0045285691 255 255 255
-0.037175436 0.051748194 -0.0045879274 255 255 255
-0.036666706 0.051222581 -0.0044315327 255 255 255
-0.044072654 0.052058052 -0.0045680008 255 255 255
-0.043482289 0.052556921 -0.0045409058 255 255 255
-0.04276628 0.052958436 -0.004683556 255 255 255
-0.039063424 0.052946355 -0.0046092705 255 255 255
-0.038417432 0.052665114 -0.0045726663 255 255 255
-0.037655868 0.052197013 -0.0044945884 255 255 255
-0.042371143 0.053082526 -0.0045095822 255 255 255
-0.041413091 0.05321867 -0.0045419601 255 255 255
-0.040407494 0.053233255 -0.0045605977 255 255 255
-0.039506618 0.053093348 -0.0044590444 255 255 255
-0.039116461 0.04381473 -0.0033235569 255 255 255
-0.04321022 0.044805817 -0.0035289405 255 255 255
-0.042469583 0.04441781 -0.0035235663 255 255 255
-0.041469987 0.04413522 -0.0034786041 255 255 255
-0.040433366 0.044107538 -0.003368973 255 255 255
-0.039686281 0.044067275 -0.0033902235 255 255 255
-0.044226073 0.045588624 -0.003517366 255 255 255
-0.043690994 0.045120422 -0.0035062011 255 255 255
-0.045027539 0.046769354 -0.0035634583 255 255 255
-0.04476162 0.046299446 -0.0035079529 255 255 255
-0.045256056 0.047428321 -0.003518204 255 255 255
-0.045421667 0.048421819 -0.003487037 255 255 255
-0.04538542 0.049388807 -0.0035120025 255 255 255
-0.045145966 0.050366096 -0.0035317426 255 255 255
-0.044958461 0.050807871 -0.003523557 255 255 255
-0.044547927 0.051487505 -0.0035060332 255 255 255
-0.037139129 0.051706951 -0.0034874547 255 255 255
-0.036450189 0.051405691 -0.003533131 255 255 255
-0.044083893 0.052049361 -0.0034485569 255 255 255
-0.043478273 0.052559942 -0.003519387 255 255 255
-0.042721074 0.052927356 -0.0033835568 255 255 255
-0.039006282 0.052970044 -0.0034235567 255 255 255
-0.038418587 0.052707568 -0.003510328 255 255 255
-0.037637752 0.052214522 -0.0035305053 255 255 255
-0.042301245 0.0530544 -0.0035711154 255 255 255
-0.041400172 0.053214345 -0.0035062556 255 255 255
-0.040397793 0.053238865 -0.0034633963 255 255 255
-0.03948791 0.053107187 -0.0035395571 255 255 255
-0.039106838 0.043837976 -0.0026343949 255 255 255
-0.043063425 0.044874489 -0.0027126151 255 255 255
-0.042446051 0.044639535 -0.002519316 255 255 255
-0.041416399 0.044352181 -0.0024867859 255 255 255
-0.040406212 0.044275712 -0.0024839384 255 255 255
-0.039545059 0.044214811 -0.0023186631 255 255 255
-0.044121843 0.045745615 -0.0026066587 255 255 255
-0.043547131 0.045307577 -0.0024418884 255 255 255
-0.042945147 0.045007873 -0.0021235566 255 255 255
-0.045006279 0.046971068 -0.0029235566 255 255 255
-0.044581726 0.04643514 -0.0024826257 255 255 255
-0.04510149 0.04750767 -0.0026202037 255 255 255
-0.044877395 0.047189098 -0.0022853473 255 255 255
-0.045214601 0.048378378 -0.0025025832 255 255 255
-0.045172483 0.049443763 -0.0025131176 255 255 255
-0.044965532 0.049807873 -0.0021235566 255 255 255
-0.045076255 0.050194886 -0.0027523153 255 255 255
-0.044791907 0.050562866 -0.0024008648 255 255 255
-0.044345181 0.051401984 -0.0025217754 255 255 255
-0.043840013 0.051845443 -0.0021929438 255 255 255
-0.037304867 0.051779389 -0.0024480124 255 255 255
-0.036715023 0.051761217 -0.0027268692 255 255 255
-0.044006281 0.052007873 -0.0029292386 255 255 255
-0.043429501 0.052346762 -0.0025422601 255 255 255
-0.042441815 0.052767783 -0.0024682211 255 255 255
-0.041506279 0.052901465 -0.0022513319 255 255 255
-0.040320568 0.052935395 -0.0021806995 255 255 255
-0.039327141 0.052855838 -0.0024123313 255 255 255
-0.038449276 0.052528352 -0.0025133851 255 255 255
-0.037727863 0.052092314 -0.0026104373 255 255 255
-0.04200628 0.053007871 -0.0029238737 255 255 255
-0.041356463 0.053066764 -0.0026754646 255 255 255
-0.040406279 0.053083111 -0.0026364978 255 255 255
-0.039594375 0.053028822 -0.0027906462 255 255 255
-0.042222768 0.044834714 -0.0017861665 255 255 255
-0.041341994 0.044735488 -0.0015912827 255 255 255
-0.040370561 0.044714876 -0.0015357257 255 255 255
-0.039410401 0.044476651 -0.0014938265 255 255 255
-0.043307289 0.045618139 -0.0015907927 255 255 255
-0.042502042 0.045188613 -0.0014403976 255 255 255
-0.041570857 0.045049209 -0.0011474836 255 255 255
-0.040406279 0.045007873 -0.001017133 255 255 255
-0.03980628 0.045007873 -0.0010146856 255 255 255
-0.044197373 0.046536397 -0.0016378012 255 255 255
-0.043687586 0.046204433 -0.0012960854 255 255 255
-0.044522204 0.04737965 -0.0014889564 255 255 255
-0.045010552 0.048554283 -0.0019309385 255 255 255
-0.044717256 0.048380312 -0.0014390436 255 255 255
-0.045006279 0.049107872 -0.0019489717 255 255 255
-0.044676233 0.049462024 -0.001468805 255 255 255
-0.044394676 0.050428182 -0.0015388643 255 255 255
-0.043838378 0.050852418 -0.0010901457 255 255 255
-0.044094943 0.051185831 -0.0017283999 255 255 255
-0.04359341 0.051554557 -0.001504299 255 255 255
-0.042856637 0.051843803 -0.0010844156 255 255 255
-0.038200565 0.051830824 -0.0013200673 255 255 255
-0.037598595 0.051824126 -0.0015718171 255 255 255
-0.043167606 0.052137557 -0.0017502414 255 255 255
-0.042446177 0.052352857 -0.0015066584 255 255 255
-0.041406039 0.052580003 -0.0015338206 255 255 255
-0.040400073 0.052634448 -0.001528995 255 255 255
-0.039380297 0.052471705 -0.0015143476 255 255 255
-0.038512878 0.052159172 -0.0015915657 255 255 255
-0.043006282 0.045938239 -0.00092355662 255 255 255
-0.042306241 0.045660269 -0.00075436948 255 255 255
-0.04138251 0.045526713 -0.00055019127 255 255 255
-0.040406272 0.045509875 -0.00052514265 255 255 255
-0.039447319 0.04539628 -0.00046069399 255 255 255
-0.043279141 0.04648418 -0.0007013267 255 255 255
-0.04250253 0.046360645 -0.00029418996 255 255 255
-0.041573938 0.046073467 -9.7155498e-05 255 255 255
-0.040406279 0.046007872 -4.4941022e-05 255 255 255
-0.039606284 0.046007872 -8.0142629e-05 255 255 255
-0.044094313 0.047523674 -0.00085850287 255 255 255
-0.043485418 0.047391154 -0.0003754519 255 255 255
-0.042849012 0.047007874 -0.00010098211 255 255 255
-0.044217046 0.048398346 -0.00077767164 255 255 255
-0.043638393 0.048400171 -0.00025349981 255 255 255
-0.044185907 0.049376838 -0.0007986917 255 255 255
-0.043572947 0.049446516 -0.00026680942 255 255 255
-0.044033278 0.050188858 -0.0009060197 255 255 255
-0.043447457 0.050422069 -0.00051491393 255 255 255
-0.042698804 0.050699569 -0.00015229304 255 255 255
-0.043211013 0.051212888 -0.00081075903 255 255 255
-0.04242469 0.051462632 -0.00051792938 255 255 255
-0.041489482 0.051624421 -0.00028565046 255 255 255
-0.040350273 0.051702186 -0.00029643477 255 255 255
-0.039379437 0.051591303 -0.00037208357 255 255 255
-0.038443815 0.051469889 -0.0005404437 255 255 255
-0.042193014 0.052037854 -0.00089631084 255 255 255
-0.041409623 0.052123006 -0.00079344522 255 255 255
-0.040406279 0.052146513 -0.00077466277 255 255 255
-0.039509911 0.052071121 -0.00086542859 255 255 255
-0.042172339 0.046734896 0.00010962511 255 255 255
-0.041380234 0.04653478 0.00023379108 255 255 255
-0.040424462 0.046522792 0.00027920399 255 255 255
-0.043013126 0.047726393 6.252771e-05 255 255 255
-0.042404428 0.04740857 0.00026710876 255 255 255
-0.041441955 0.047402754 0.00059336907 255 255 255
-0.040390894 0.04741358 0.00066042377 255 255 255
-0.039414186 0.047400005 0.00057615107 255 255 255
-0.043126255 0.048409004 0.00010496939 255 255 255
-0.042457934 0.048404839 0.00042699755 255 255 255
-0.041475955 0.048407171 0.00076005328 255 255 255
-0.040444676 0.048475727 0.00085921591 255 255 255
-0.039395377 0.048392482 0.00077290501 255 255 255
-0.043084219 0.049356535 8.589428e-05 255 255 255
-0.042441692 0.049420536 0.0003763485 255 255 255
-0.041396074 0.049441434 0.00070444576 255 255 255
-0.040406279 0.049407873 0.00081231078 255 255 255
-0.039341141 0.04942479 0.0008415457 255 255 255
-0.042325851 0.050363902 0.00017050267 255 255 255
-0.041454203 0.050435148 0.00043009612 255 255 255
-0.040401381 0.050411329 0.00056656584 255 255 255
-0.039458599 0.050383128 0.0006440407 255 255 255
-0.041313972 0.051152166 0.00011370669 255 255 255
-0.04043645 0.051180214 0.00018121685 255 255 255
-0.039449401 0.051106397 0.00016463538 255 255 255
0 0 0 1 0 0 0 1 0 0 0 1 0 0 0 0 0 333 1 0 0
