ply
format ascii 1.0
comment PCL generated
element vertex 954
property float x
property float y
property float z
property uchar red
property uchar green
property uchar blue
element camera 0
property float view_px
property float view_py
property float view_pz
property float x_axisx
property float x_axisy
property float x_axisz
property float y_axisx
property float y_axisy
property float y_axisz
property float z_axisx
property float z_axisy
property float z_axisz
property float focal
property float scalex
property float scaley
property float centerx
property float centery
property int viewportx
property int viewporty
property float k1
property float k2
end_header
-0.039877903 -0.00027578825 -0.021899598 255 255 255
0.029775506 -0.00058102998 -0.021608584 255 255 255
0.030090664 -0.00070640718 -0.021136835 255 255 255
-0.040071849 0.00031442376 -0.021207124 255 255 255
-0.039758135 0.00050264626 -0.021657964 255 255 255
0.029709119 0.000440998 -0.021539677 255 255 255
0.030022163 0.00010787783 -0.021123555 255 255 255
-0.039526392 0.0014220687 -0.021528678 255 255 255
0.029621551 0.0014131407 -0.021519547 255 255 255
-0.0392671 0.002399422 -0.021492584 255 255 255
-0.038974263 0.002807878 -0.021923555 255 255 255
0.029503819 0.002415441 -0.021553028 255 255 255
-0.039141003 0.0033392163 -0.021329464 255 255 255
-0.038724404 0.003519031 -0.021751475 255 255 255
0.02943013 0.0033959639 -0.021489277 255 255 255
-0.039012391 0.0040749125 -0.021117494 255 255 255
-0.03857341 0.0044802204 -0.021511206 255 255 255
0.028989371 0.0045775678 -0.021930587 255 255 255
0.029353652 0.0043924316 -0.021441136 255 255 255
-0.038317077 0.0054517188 -0.021489721 255 255 255
-0.037864789 0.0058758324 -0.021923555 255 255 255
0.028917635 0.0054707751 -0.021837292 255 255 255
0.029262993 0.0053679734 -0.021375753 255 255 255
-0.038101599 0.0062624146 -0.021170197 255 255 255
-0.037724815 0.0064409762 -0.021656197 255 255 255
0.028856374 0.00642893 -0.021761751 255 255 255
0.029217675 0.0063767214 -0.021264961 255 255 255
-0.037453279 0.0074427924 -0.021505343 255 255 255
0.028779296 0.0074520227 -0.021675248 255 255 255
0.0291554 0.0073738424 -0.021187881 255 255 255
-0.037239358 0.0084195463 -0.021456279 255 255 255
-0.036903586 0.0086578764 -0.021875614 255 255 255
0.028694337 0.0084429467 -0.021584788 255 255 255
0.029095933 0.0082478765 -0.021100253 255 255 255
-0.037126776 0.0092932032 -0.02122774 255 255 255
-0.036611591 0.0095132971 -0.021698419 255 255 255
0.028599001 0.0093956254 -0.021508381 255 255 255
-0.036446165 0.010402462 -0.021516431 255 255 255
-0.035936128 0.010707876 -0.021923555 255 255 255
0.027993711 0.010807876 -0.021972422 255 255 255
0.028450575 0.01039679 -0.02150486 255 255 255
-0.036206417 0.011392401 -0.021406388 255 255 255
-0.035795446 0.011519792 -0.02181156 255 255 255
0.027935727 0.011518987 -0.021887831 255 255 255
0.028363042 0.011372735 -0.021406475 255 255 255
-0.036075156 0.012151077 -0.021147596 255 255 255
-0.035591237 0.012488008 -0.021541299 255 255 255
0.027866602 0.012428716 -0.021777207 255 255 255
0.0282673 0.012383855 -0.021311725 255 255 255
-0.035329629 0.013384165 -0.021484118 255 255 255
-0.034847781 0.013783727 -0.021936759 255 255 255
0.027763506 0.013419859 -0.021673348 255 255 255
0.028180826 0.013386993 -0.021193244 255 255 255
-0.035134278 0.01434662 -0.021270892 255 255 255
-0.03473144 0.014503512 -0.021708606 255 255 255
0.027620647 0.014459131 -0.021600269 255 255 255
0.028114349 0.01424121 -0.021091225 255 255 255
-0.035006281 0.015007876 -0.021087933 255 255 255
-0.034488216 0.015424346 -0.021530489 255 255 255
0.027532095 0.015411657 -0.021496559 255 255 255
-0.03422121 0.016327588 -0.021329332 255 255 255
-0.033742201 0.016528565 -0.021745931 255 255 255
0.026945736 0.016518988 -0.021910481 255 255 255
0.027414056 0.01641893 -0.021405494 255 255 255
-0.034006279 0.017007876 -0.021114646 255 255 255
-0.033511896 0.017423103 -0.021573491 255 255 255
0.026826749 0.017459616 -0.021806596 255 255 255
0.027298741 0.017403133 -0.021319192 255 255 255
0.064993702 0.017967679 -0.021923555 255 255 255
0.065450847 0.017868584 -0.021947395 255 255 255
-0.033334516 0.018355351 -0.021359326 255 255 255
-0.032743417 0.018594241 -0.021794323 255 255 255
0.026714638 0.018450614 -0.021693546 255 255 255
0.027206298 0.018370787 -0.021216327 255 255 255
0.063943706 0.018794086 -0.021838346 255 255 255
0.064625926 0.018504832 -0.021692179 255 255 255
0.06561543 0.018435996 -0.021628443 255 255 255
0.066432729 0.018587423 -0.021817178 255 255 255
-0.033045929 0.019281434 -0.02110268 255 255 255
-0.032617129 0.019437956 -0.021561772 255 255 255
0.026613643 0.019406876 -0.021572977 255 255 255
0.027134085 0.019265017 -0.021086672 255 255 255
0.062816478 0.019759385 -0.021803185 255 255 255
0.063586071 0.019493116 -0.021495763 255 255 255
0.064448677 0.019225476 -0.021201061 255 255 255
0.065652855 0.019235 -0.021167627 255 255 255
0.066559024 0.019430442 -0.021489337 255 255 255
0.067126542 0.01957454 -0.021897258 255 255 255
-0.032357868 0.020387569 -0.021505546 255 255 255
-0.031867925 0.020665871 -0.021901814 255 255 255
0.025974512 0.020583022 -0.021914447 255 255 255
0.026491143 0.020373534 -0.02147535 255 255 255
0.061776593 0.020664509 -0.021672761 255 255 255
0.062494554 0.02033478 -0.021426881 255 255 255
0.063210316 0.020078873 -0.021140065 255 255 255
0.066765942 0.020372065 -0.021277066 255 255 255
0.067185126 0.020486956 -0.021770146 255 255 255
-0.032189023 0.02127004 -0.021271355 255 255 255
-0.03164424 0.021521518 -0.021697784 255 255 255
0.025851598 0.021469066 -0.021840259 255 255 255
0.02641126 0.021370323 -0.021329019 255 255 255
0.058730382 0.021846801 -0.021740243 255 255 255
0.059738144 0.02169512 -0.021713587 255 255 255
0.060650665 0.021589911 -0.02164196 255 255 255
0.061414197 0.021262638 -0.021359421 255 255 255
0.066905513 0.0214462 -0.021229926 255 255 255
0.067174457 0.021407872 -0.021735184 255 255 255
-0.03136776 0.022387618 -0.021432964 255 255 255
-0.030783091 0.022738552 -0.021846242 255 255 255
0.025713537 0.022475662 -0.021735001 255 255 255
0.026279734 0.022357197 -0.021233082 255 255 255
0.057780374 0.022601953 -0.021327969 255 255 255
0.058593705 0.02237835 -0.021268763 255 255 255
0.059698656 0.022254171 -0.021240056 255 255 255
0.060413402 0.022122392 -0.02121201 255 255 255
0.066904418 0.022439806 -0.021303503 255 255 255
0.067108408 0.022316562 -0.021787569 255 255 255
-0.031148531 0.023414522 -0.021225058 255 255 255
-0.030651735 0.023516549 -0.021699063 255 255 255
0.02561572 0.023422044 -0.021591814 255 255 255
0.026147403 0.023341209 -0.021134693 255 255 255
0.055642311 0.023844466 -0.021394014 255 255 255
0.056578059 0.023120513 -0.021501975 255 255 255
0.057193704 0.023007875 -0.021146085 255 255 255
0.06680274 0.023408849 -0.021510754 255 255 255
0.06700664 0.023007875 -0.021923555 255 255 255
-0.03100628 0.024007874 -0.021084256 255 255 255
-0.030348307 0.024435727 -0.021476874 255 255 255
-0.029877085 0.024769584 -0.021873556 255 255 255
0.024940955 0.024574321 -0.02190832 255 255 255
0.025516089 0.024395635 -0.021443998 255 255 255
0.054793704 0.024597824 -0.021298468 255 255 255
0.05518122 0.024023062 -0.021925181 255 255 255
0.066492781 0.024406346 -0.021527687 255 255 255
-0.030170253 0.025325008 -0.021203468 255 255 255
-0.029684972 0.02546449 -0.021673929 255 255 255
0.024809895 0.025492167 -0.021802749 255 255 255
0.025396334 0.025383746 -0.021305583 255 255 255
0.053993706 0.02537654 -0.021207996 255 255 255
0.065926164 0.025747554 -0.021518297 255 255 255
0.066160366 0.025238974 -0.021481449 255 255 255
-0.03000628 0.026007874 -0.021038206 255 255 255
-0.029416697 0.026384687 -0.021466972 255 255 255
-0.02886549 0.026707875 -0.021932492 255 255 255
0.024652066 0.026445201 -0.021683495 255 255 255
0.025254328 0.026367383 -0.021189202 255 255 255
0.053183213 0.026207875 -0.021323554 255 255 255
0.065559715 0.02646233 -0.021572115 255 255 255
-0.02918425 0.027376343 -0.021281982 255 255 255
-0.028661925 0.027558886 -0.021702178 255 255 255
0.023970624 0.027674541 -0.021928506 255 255 255
0.02455763 0.027419269 -0.021510534 255 255 255
0.025128067 0.027167877 -0.021093776 255 255 255
0.051788218 0.027807873 -0.021323554 255 255 255
0.052393705 0.027101055 -0.021323554 255 255 255
0.064866088 0.027646579 -0.021545714 255 255 255
0.065169841 0.027160559 -0.021490224 255 255 255
-0.02901024 0.028007874 -0.021126132 255 255 255
-0.028376987 0.028365128 -0.02141658 255 255 255
-0.027769618 0.028542481 -0.021852802 255 255 255
0.023835801 0.028469026 -0.021830386 255 255 255
0.024445742 0.028355619 -0.021361956 255 255 255
0.063993707 0.028945504 -0.021623556 255 255 255
0.064383358 0.028403537 -0.021513786 255 255 255
-0.028126519 0.029300343 -0.021183981 255 255 255
-0.027504403 0.029471749 -0.021633836 255 255 255
-0.026957862 0.029807873 -0.021923555 255 255 255
0.023682069 0.029449174 -0.021695418 255 255 255
0.024307365 0.029363131 -0.021219434 255 255 255
0.050712604 0.029297926 -0.021529982 255 255 255
0.063639268 0.029465372 -0.02152482 255 255 255
-0.027314641 0.030384667 -0.02137221 255 255 255
-0.026751645 0.0304737 -0.021818506 255 255 255
0.022976093 0.030640349 -0.021913178 255 255 255
0.023557181 0.030409783 -0.021537788 255 255 255
0.024161767 0.030316681 -0.021094525 255 255 255
0.049993705 0.030194413 -0.021323554 255 255 255
0.062785722 0.030581657 -0.021536728 255 255 255
0.063178562 0.030099941 -0.021523558 255 255 255
-0.027132245 0.031201191 -0.021135883 255 255 255
-0.02653051 0.031454898 -0.021602001 255 255 255
0.02280885 0.03149531 -0.021823501 255 255 255
0.023492133 0.031383153 -0.021330729 255 255 255
0.048793707 0.031807873 -0.021003693 255 255 255
0.049236413 0.031543873 -0.021358084 255 255 255
0.061861672 0.031724423 -0.021588478 255 255 255
0.062303517 0.031203968 -0.021540223 255 255 255
-0.026282284 0.032305826 -0.021358712 255 255 255
-0.025661908 0.032582246 -0.021762583 255 255 255
0.022591846 0.032473266 -0.021702833 255 255 255
0.023302952 0.032370567 -0.021212289 255 255 255
0.048718516 0.032496911 -0.021263188 255 255 255
0.049210221 0.032419283 -0.021736043 255 255 255
0.060882129 0.032782149 -0.021523556 255 255 255
0.061320882 0.032313898 -0.021511173 255 255 255
-0.026060339 0.033119909 -0.021094481 255 255 255
-0.025409371 0.033454224 -0.021459898 255 255 255
-0.024742672 0.033619929 -0.021878149 255 255 255
0.021904262 0.033573493 -0.021882908 255 255 255
0.022582894 0.03342972 -0.021445669 255 255 255
0.023119459 0.033207871 -0.021096442 255 255 255
0.04790473 0.033677127 -0.021117086 255 255 255
0.048426524 0.033471886 -0.021438645 255 255 255
0.049098752 0.033007875 -0.021817192 255 255 255
0.059886698 0.033760648 -0.021473557 255 255 255
0.060383592 0.033300657 -0.021523552 255 255 255
-0.025210492 0.034341395 -0.021204067 255 255 255
-0.024494581 0.034448143 -0.021681542 255 255 255
-0.023830788 0.03484565 -0.02194109 255 255 255
0.021703986 0.034438569 -0.021763798 255 255 255
0.022422977 0.034394216 -0.021270858 255 255 255
0.047712166 0.034479693 -0.021318983 255 255 255
0.048325557 0.034314379 -0.02174871 255 255 255
0.058796071 0.034710154 -0.021523558 255 255 255
0.059407283 0.034188945 -0.021519791 255 255 255
-0.025006281 0.035007872 -0.021040779 255 255 255
-0.024360266 0.035368878 -0.02134753 255 255 255
-0.023608213 0.03551621 -0.021809995 255 255 255
0.020923121 0.035687756 -0.021920001 255 255 255
0.021568168 0.035406001 -0.021584656 255 255 255
0.022192543 0.035379242 -0.021163674 255 255 255
0.046952125 0.035611946 -0.021092391 255 255 255
0.047542058 0.035394154 -0.021477142 255 255 255
0.048146982 0.03534567 -0.021926077 255 255 255
0.056993704 0.035985515 -0.021923555 255 255 255
0.057598863 0.035612669 -0.021523552 255 255 255
0.058284838 0.035109971 -0.021523556 255 255 255
-0.024159582 0.036195323 -0.021111494 255 255 255
-0.023468625 0.03639897 -0.021504903 255 255 255
-0.022772044 0.036633972 -0.021872602 255 255 255
0.020724284 0.036508814 -0.021815388 255 255 255
0.021501269 0.03642223 -0.021328388 255 255 255
0.046935812 0.03622134 -0.021099741 255 255 255
0.047567006 0.036454048 -0.021458616 255 255 255
0.048254911 0.036637463 -0.021867556 255 255 255
0.055696391 0.036809489 -0.021505374 255 255 255
0.056526527 0.036320604 -0.021532128 255 255 255
0.057057291 0.03600787 -0.021323554 255 255 255
-0.023250671 0.037304867 -0.021259231 255 255 255
-0.022462144 0.037465148 -0.021711407 255 255 255
-0.021838769 0.037837017 -0.021937577 255 255 255
0.019921344 0.037707873 -0.021945007 255 255 255
0.020554174 0.037421431 -0.021655004 255 255 255
0.021310223 0.037334204 -0.021191489 255 255 255
0.047687884 0.037230309 -0.021210201 255 255 255
0.048536062 0.037501827 -0.021539556 255 255 255
0.049438607 0.037754089 -0.021823402 255 255 255
0.050293706 0.037974544 -0.021923555 255 255 255
0.052760374 0.037953462 -0.021690222 255 255 255
0.053549808 0.037774414 -0.021512603 255 255 255
0.054559998 0.037379794 -0.0215226 255 255 255
0.055275474 0.037037518 -0.021475988 255 255 255
-0.023070462 0.038217705 -0.021100331 255 255 255
-0.022379937 0.03841852 -0.021357307 255 255 255
-0.021594146 0.038521744 -0.021790048 255 255 255
0.019761557 0.038495488 -0.021819264 255 255 255
0.020570027 0.038411912 -0.02135366 255 255 255
0.021130608 0.038107872 -0.021082399 255 255 255
0.048818205 0.038065948 -0.021168642 255 255 255
0.049605586 0.03815978 -0.021378666 255 255 255
0.050573748 0.038207658 -0.021501692 255 255 255
0.051624056 0.038175005 -0.021517217 255 255 255
0.052482881 0.038065415 -0.02141222 255 255 255
-0.022146091 0.039213434 -0.021109294 255 255 255
-0.021461621 0.039426845 -0.02145765 255 255 255
-0.020702114 0.039628327 -0.021833945 255 255 255
0.01893807 0.039697945 -0.021937894 255 255 255
0.019536939 0.039447628 -0.021664519 255 255 255
0.020361565 0.039331317 -0.021208391 255 255 255
-0.021178778 0.040317792 -0.021211609 255 255 255
-0.020460358 0.040433858 -0.021579478 255 255 255
-0.019756738 0.040638261 -0.021895027 255 255 255
0.018736955 0.040518649 -0.02179667 255 255 255
0.019539043 0.04042704 -0.021365078 255 255 255
0.020170761 0.040141206 -0.021107962 255 255 255
-0.020280305 0.041358259 -0.021302501 255 255 255
-0.01949583 0.041552387 -0.021743581 255 255 255
-0.018926479 0.041807871 -0.021923555 255 255 255
0.017827917 0.041718084 -0.021893157 255 255 255
0.018555826 0.041445833 -0.021594323 255 255 255
0.019402854 0.041314635 -0.021168981 255 255 255
-0.020168792 0.042093072 -0.021130422 255 255 255
-0.0193465 0.042383578 -0.021327041 255 255 255
-0.018511938 0.042561945 -0.021820152 255 255 255
0.016993713 0.0428809 -0.021953374 255 255 255
0.017601179 0.042524025 -0.021757685 255 255 255
0.018540232 0.042436503 -0.021295911 255 255 255
0.019124929 0.042107873 -0.021081831 255 255 255
-0.019139616 0.043141205 -0.021103492 255 255 255
-0.018429464 0.04345933 -0.021464713 255 255 255
-0.017573927 0.043604221 -0.021820493 255 255 255
-0.016806284 0.043972928 -0.021923555 255 255 255
0.016737999 0.043516159 -0.021863805 255 255 255
0.0175464 0.043480385 -0.021485107 255 255 255
0.018327989 0.043334182 -0.021130349 255 255 255
-0.018258879 0.044171333 -0.021114534 255 255 255
-0.017454257 0.04437045 -0.021407772 255 255 255
-0.016477512 0.044490412 -0.021817692 255 255 255
-0.01584618 0.044845838 -0.021941217 255 255 255
0.015821364 0.044633958 -0.021910893 255 255 255
0.016543981 0.044442844 -0.021654941 255 255 255
0.017478617 0.044384059 -0.021234468 255 255 255
-0.017191254 0.045193005 -0.021151055 255 255 255
-0.016409848 0.045472085 -0.021400128 255 255 255
-0.015487508 0.045464493 -0.021820093 255 255 255
-0.014837857 0.045838784 -0.021938035 255 255 255
0.014913988 0.04577921 -0.021932786 255 255 255
0.015581511 0.045438856 -0.021760065 255 255 255
0.016572421 0.045434438 -0.021315124 255 255 255
0.017229274 0.045139473 -0.021105608 255 255 255
-0.01620082 0.046202566 -0.021166394 255 255 255
-0.015467222 0.046479553 -0.02138086 255 255 255
-0.014515762 0.046495982 -0.021773672 255 255 255
-0.013704782 0.046848089 -0.02193946 255 255 255
0.013927045 0.046738654 -0.021965852 255 255 255
0.014690809 0.046464462 -0.021782177 255 255 255
0.015564756 0.046408705 -0.021452274 255 255 255
0.016343333 0.046338223 -0.021142554 255 255 255
-0.015219005 0.047219619 -0.021164896 255 255 255
-0.014413789 0.047410529 -0.021410137 255 255 255
-0.013457142 0.047483016 -0.021758633 255 255 255
-0.012756702 0.047722638 -0.021918351 255 255 255
0.012993711 0.047870848 -0.021952774 255 255 255
0.013644383 0.047501221 -0.021838041 255 255 255
0.014572395 0.047395147 -0.021530684 255 255 255
0.01547035 0.047363959 -0.021174517 255 255 255
-0.014247613 0.048190702 -0.021143636 255 255 255
-0.013401656 0.048427302 -0.021371091 255 255 255
-0.01243432 0.048438389 -0.021727134 255 255 255
-0.011639579 0.048714407 -0.021879673 255 255 255
0.011993713 0.048869267 -0.021947552 255 255 255
0.012634936 0.048470385 -0.021865694 255 255 255
0.013551108 0.048468541 -0.021549758 255 255 255
0.014510647 0.048393983 -0.021240056 255 255 255
0.015155549 0.04807454 -0.021075437 255 255 255
-0.013204044 0.049210943 -0.021117002 255 255 255
-0.0123923 0.049412362 -0.021319252 255 255 255
-0.011421007 0.049428102 -0.021647809 255 255 255
-0.010526554 0.049603291 -0.021854335 255 255 255
-0.0098534497 0.04983275 -0.021931918 255 255 255
0.010893713 0.049807873 -0.021961346 255 255 255
0.011644974 0.049502656 -0.02183985 255 255 255
0.012588817 0.049429189 -0.021556936 255 255 255
0.013596295 0.049390763 -0.021238966 255 255 255
0.014234664 0.049139656 -0.021083375 255 255 255
-0.012212921 0.050103154 -0.021103226 255 255 255
-0.011396743 0.050428052 -0.021236666 255 255 255
-0.010399639 0.050448973 -0.021540025 255 255 255
-0.0094824759 0.050500572 -0.021789664 255 255 255
-0.0085981097 0.050767634 -0.021921558 255 255 255
0.0097937239 0.050720446 -0.021939246 255 255 255
0.010586963 0.05045056 -0.021828076 255 255 255
0.011595419 0.050410669 -0.021547973 255 255 255
0.012558572 0.050417673 -0.021243824 255 255 255
0.013283543 0.050151072 -0.021092754 255 255 255
-0.011206284 0.051074535 -0.02102253 255 255 255
-0.010384705 0.051312942 -0.021176137 255 255 255
-0.0094559528 0.05146268 -0.021407085 255 255 255
-0.0084496932 0.051424816 -0.021698071 255 255 255
-0.0075101703 0.051562503 -0.021853685 255 255 255
-0.006601471 0.051813606 -0.021944607 255 255 255
0.0078937132 0.051857926 -0.021944616 255 255 255
0.0086519644 0.051598322 -0.02190013 255 255 255
0.0095654847 0.051437221 -0.021747956 255 255 255
0.010558419 0.051414043 -0.021506559 255 255 255
0.011546753 0.05138424 -0.02122579 255 255 255
0.012285666 0.051131718 -0.021090593 255 255 255
-0.0092638014 0.052240718 -0.021153437 255 255 255
-0.0084229801 0.052434817 -0.021298308 255 255 255
-0.0074241417 0.052414633 -0.021533633 255 255 255
-0.0063994308 0.052447822 -0.021743795 255 255 255
-0.0054595214 0.052540202 -0.021857515 255 255 255
-0.004497529 0.052765727 -0.021932978 255 255 255
0.0058083166 0.052769192 -0.02195213 255 255 255
0.0066222157 0.052589588 -0.021896699 255 255 255
0.0075909034 0.052437004 -0.021803658 255 255 255
0.0085660042 0.052417416 -0.021615474 255 255 255
0.0095684193 0.052439228 -0.021395087 255 255 255
0.010521694 0.052346449 -0.02117295 255 255 255
0.011225162 0.05205787 -0.021075353 255 255 255
-0.0082192952 0.053065013 -0.021073561 255 255 255
-0.0073913638 0.053325422 -0.021170059 255 255 255
-0.0064282608 0.0534059 -0.021335203 255 255 255
-0.0054020057 0.053433374 -0.0215107 255 255 255
-0.0044292631 0.053438675 -0.021674022 255 255 255
-0.0034321765 0.053417284 -0.021806298 255 255 255
-0.00240802 0.053553686 -0.021854784 255 255 255
-0.0014489375 0.053635638 -0.021898814 255 255 255
-0.00051537616 0.053718194 -0.021920422 255 255 255
0.00063986838 0.053734757 -0.02192362 255 255 255
0.0015937142 0.053705014 -0.021920128 255 255 255
0.0025907813 0.053612176 -0.021916062 255 255 255
0.0036204897 0.05359444 -0.021856504 255 255 255
0.0046391687 0.053466808 -0.021824859 255 255 255
0.0055837925 0.053424496 -0.021737188 255 255 255
0.0065935762 0.053414982 -0.021602605 255 255 255
0.0075685186 0.053414196 -0.021441061 255 255 255
0.0085721202 0.053457726 -0.02123943 255 255 255
0.0094956718 0.053224396 -0.021133728 255 255 255
0.010193713 0.053007871 -0.021037338 255 255 255
-0.00626083 0.054118928 -0.021092495 255 255 255
-0.0053853774 0.054319702 -0.021164399 255 255 255
-0.0044205072 0.054418307 -0.021287726 255 255 255
-0.0033924258 0.054401364 -0.021411082 255 255 255
-0.0024335564 0.054491308 -0.021476619 255 255 255
-0.0013983618 0.054378401 -0.021606827 255 255 255
-0.00040628525 0.054431826 -0.021639366 255 255 255
0.00060191879 0.05443098 -0.021659512 255 255 255
0.001575532 0.054416753 -0.021651926 255 255 255
0.002577923 0.05438298 -0.021627018 255 255 255
0.0035783809 0.054438774 -0.021551037 255 255 255
0.0045790141 0.054444343 -0.021456055 255 255 255
0.0055911639 0.054431297 -0.021344353 255 255 255
0.006604583 0.054378863 -0.021226645 255 255 255
0.0075055524 0.054271936 -0.021121308 255 255 255
0.0082758209 0.054047871 -0.021054255 255 255 255
-0.0042396188 0.055075999 -0.021059679 255 255 255
-0.0033937858 0.055141229 -0.021111203 255 255 255
-0.0023939942 0.055339679 -0.021141151 255 255 255
-0.0014229293 0.055370666 -0.021207696 255 255 255
-0.00043532145 0.055429455 -0.021242643 255 255 255
0.00059505878 0.055429962 -0.021265075 255 255 255
0.0016249641 0.055438362 -0.021249194 255 255 255
0.0026031516 0.055404987 -0.02123265 255 255 255
0.0035659894 0.055389244 -0.021183044 255 255 255
0.0045686895 0.05532733 -0.021147512 255 255 255
0.0055275918 0.055177782 -0.021092972 255 255 255
0.0063437135 0.055057868 -0.021036515 255 255 255
-0.0010062853 0.05600787 -0.021007575 255 255 255
-0.00035628531 0.05600787 -0.021012539 255 255 255
0.00059371453 0.05600787 -0.021024199 255 255 255
0.0015937142 0.05600787 -0.021037841 255 255 255
0.0024937137 0.05600787 -0.021012802 255 255 255
0.026766686 -0.047187891 -0.020439174 255 255 255
0.027552007 -0.047373399 -0.020519972 255 255 255
0.028620485 -0.047381788 -0.020499002 255 255 255
0.029197887 -0.04719514 -0.020264208 255 255 255
0.025701974 -0.046420604 -0.020504339 255 255 255
0.026310042 -0.046900824 -0.020586822 255 255 255
0.029509153 -0.046578258 -0.020530045 255 255 255
0.024832021 -0.04533888 -0.020477824 255 255 255
0.025206899 -0.045842931 -0.020523554 255 255 255
0.029878784 -0.045641225 -0.020540951 255 255 255
0.030041922 -0.045272112 -0.020283554 255 255 255
0.023920661 -0.04418233 -0.020450525 255 255 255
0.024335116 -0.044673394 -0.020538483 255 255 255
0.029980831 -0.044799756 -0.020878697 255 255 255
0.030128026 -0.044516135 -0.020428864 255 255 255
0.022872401 -0.043190889 -0.020447047 255 255 255
0.023446904 -0.043671113 -0.02056329 255 255 255
0.030236656 -0.043546777 -0.020525534 255 255 255
0.020879427 -0.042092782 -0.020225916 255 255 255
0.021593051 -0.04235588 -0.020489778 255 255 255
0.022418408 -0.042816941 -0.020594263 255 255 255
0.030393323 -0.042572763 -0.020540526 255 255 255
0.017818712 -0.041095868 -0.020215837 255 255 255
0.018645748 -0.041259378 -0.020514626 255 255 255
0.019599991 -0.041545283 -0.02054221 255 255 255
0.020489855 -0.04185633 -0.020555794 255 255 255
0.021113535 -0.041992117 -0.020923555 255 255 255
0.030506372 -0.041576091 -0.020519005 255 255 255
0.013760378 -0.040068906 -0.02025689 255 255 255
0.014620923 -0.040222526 -0.020453218 255 255 255
0.015586639 -0.040425587 -0.020524833 255 255 255
0.016516192 -0.040637989 -0.020550763 255 255 255
0.017486271 -0.040878978 -0.020604892 255 255 255
0.018145861 -0.040992118 -0.020856934 255 255 255
0.03061731 -0.040590327 -0.020536693 255 255 255
0.0097714895 -0.03907983 -0.020275826 255 255 255
0.010606223 -0.039211527 -0.020480663 255 255 255
0.011584776 -0.03943966 -0.020546738 255 255 255
0.01259859 -0.039695174 -0.020516586 255 255 255
0.01348091 -0.039901063 -0.020575415 255 255 255
0.014204925 -0.039979205 -0.020839754 255 255 255
0.030728241 -0.039617382 -0.02047441 255 255 255
0.0048437142 -0.038040601 -0.020173553 255 255 255
0.0056883027 -0.038131677 -0.020382013 255 255 255
0.0066021038 -0.038266443 -0.020534905 255 255 255
0.0076096565 -0.038499516 -0.020515159 255 255 255
0.0085451854 -0.038705356 -0.020507663 255 255 255
0.0095301121 -0.038904089 -0.020632304 255 255 255
0.010220692 -0.038981691 -0.020836301 255 255 255
0.030810412 -0.0385856 -0.020545576 255 255 255
-0.049018059 -0.037189052 -0.020197159 255 255 255
-0.048456963 -0.037359156 -0.020491078 255 255 255
-0.04743756 -0.03757992 -0.02051538 255 255 255
-0.046396285 -0.037585422 -0.020509174 255 255 255
-0.045405071 -0.037291024 -0.020506252 255 255 255
-0.044806279 -0.037019163 -0.020223554 255 255 255
-0.00023961859 -0.037066106 -0.020190222 255 255 255
0.00067039923 -0.037145417 -0.020381369 255 255 255
0.001623086 -0.037270743 -0.020521045 255 255 255
0.0025517503 -0.037448365 -0.020483647 255 255 255
0.0035700563 -0.037638471 -0.020543974 255 255 255
0.0045837839 -0.037845373 -0.020555312 255 255 255
0.0054448 -0.037960302 -0.020765891 255 255 255
0.030896196 -0.037651654 -0.020538209 255 255 255
0.03103289 -0.037392113 -0.020123554 255 255 255
-0.049026769 -0.036584318 -0.020270981 255 255 255
-0.048883926 -0.036627222 -0.020712171 255 255 255
-0.044414725 -0.036673207 -0.020542532 255 255 255
-0.043740168 -0.036169767 -0.020490943 255 255 255
-0.0062462846 -0.036031328 -0.020163555 255 255 255
-0.0053287176 -0.036127798 -0.020285668 255 255 255
-0.0043811467 -0.036230132 -0.020449417 255 255 255
-0.003418396 -0.036362991 -0.020546347 255 255 255
-0.0024344854 -0.036542099 -0.020543149 255 255 255
-0.0013980144 -0.036713917 -0.020550422 255 255 255
-0.00045677353 -0.036876198 -0.02056968 255 255 255
0.0005045759 -0.036964234 -0.020813998 255 255 255
0.030943438 -0.036597531 -0.02064826 255 255 255
0.031048397 -0.036481004 -0.020234667 255 255 255
-0.049096398 -0.03556674 -0.020476399 255 255 255
-0.048951749 -0.035842117 -0.020873554 255 255 255
-0.043270368 -0.035789602 -0.020553639 255 255 255
-0.042508893 -0.035282258 -0.020498959 255 255 255
-0.014339617 -0.035039768 -0.020156888 255 255 255
-0.013334855 -0.035088271 -0.02027384 255 255 255
-0.012376814 -0.035143733 -0.020402927 255 255 255
-0.011411631 -0.035215944 -0.020505454 255 255 255
-0.010450168 -0.035320032 -0.020532958 255 255 255
-0.009414399 -0.03545969 -0.020513147 255 255 255
-0.0084346738 -0.035588302 -0.020535115 255 255 255
-0.0074465917 -0.035732344 -0.020542581 255 255 255
-0.0064335978 -0.035880037 -0.020541741 255 255 255
-0.0054593361 -0.03594799 -0.020743756 255 255 255
-0.0048179734 -0.035992116 -0.020923555 255 255 255
0.030961534 -0.035642114 -0.020782033 255 255 255
0.031102881 -0.035556823 -0.020287564 255 255 255
-0.049067575 -0.034633357 -0.020523416 255 255 255
-0.048967361 -0.034432113 -0.020883555 255 255 255
-0.042056009 -0.034968629 -0.020713426 255 255 255
-0.041464213 -0.034741174 -0.020515336 255 255 255
-0.040408093 -0.034378111 -0.020496825 255 255 255
-0.039450016 -0.034174815 -0.020481218 255 255 255
-0.038463425 -0.034101345 -0.020275254 255 255 255
-0.037481286 -0.034044862 -0.020198556 255 255 255
-0.036406282 -0.034022622 -0.020123554 255 255 255
-0.03540628 -0.034019955 -0.020123554 255 255 255
-0.034406282 -0.034009811 -0.020123554 255 255 255
-0.03340628 -0.034006633 -0.020123554 255 255 255
-0.032406278 -0.034011289 -0.020123554 255 255 255
-0.03140628 -0.034026496 -0.020123554 255 255 255
-0.030406281 -0.034052182 -0.020123554 255 255 255
-0.029326281 -0.034083247 -0.02019177 255 255 255
-0.028390897 -0.03409737 -0.020252593 255 255 255
-0.027359219 -0.034089584 -0.020329582 255 255 255
-0.02640019 -0.034118313 -0.020358901 255 255 255
-0.025399627 -0.034148529 -0.020420007 255 255 255
-0.024406284 -0.034173992 -0.020513861 255 255 255
-0.023392055 -0.034220986 -0.020512996 255 255 255
-0.022401839 -0.034283388 -0.020481441 255 255 255
-0.021427104 -0.034332946 -0.020542325 255 255 255
-0.020395774 -0.034420263 -0.020521935 255 255 255
-0.019413751 -0.03449633 -0.020534445 255 255 255
-0.018405896 -0.03458818 -0.020522496 255 255 255
-0.017404372 -0.034675609 -0.020505577 255 255 255
-0.016420832 -0.034725551 -0.020519083 255 255 255
-0.015393931 -0.034814585 -0.020516602 255 255 255
-0.014427588 -0.034872472 -0.020628272 255 255 255
-0.013460637 -0.034919951 -0.020733932 255 255 255
-0.012555091 -0.034972545 -0.020867309 255 255 255
0.030983601 -0.03458216 -0.020888671 255 255 255
0.031116236 -0.03461206 -0.020404546 255 255 255
-0.049027599 -0.033767313 -0.020240743 255 255 255
-0.048891943 -0.033469826 -0.020669904 255 255 255
-0.03910628 -0.033985551 -0.020903364 255 255 255
-0.03837771 -0.033947233 -0.020748127 255 255 255
-0.037361886 -0.033916697 -0.020633513 255 255 255
-0.036403291 -0.033883918 -0.020590717 255 255 255
-0.03540628 -0.033864379 -0.020582743 255 255 255
-0.034391996 -0.033851389 -0.02060614 255 255 255
-0.03340628 -0.033866465 -0.020579698 255 255 255
-0.032406282 -0.033872735 -0.020587409 255 255 255
-0.03140628 -0.033880956 -0.020602303 255 255 255
-0.030420637 -0.033905812 -0.020610088 255 255 255
-0.029406283 -0.033916932 -0.020642743 255 255 255
-0.028440503 -0.033923388 -0.020711007 255 255 255
-0.027437689 -0.033955548 -0.020780722 255 255 255
-0.026406283 -0.033971842 -0.02085631 255 255 255
-0.025520757 -0.033990249 -0.020908326 255 255 255
-0.024806282 -0.033992115 -0.020998474 255 255 255
0.030993709 -0.033992115 -0.020967076 255 255 255
0.03114724 -0.033603478 -0.020488912 255 255 255
-0.048801105 -0.032554276 -0.020491002 255 255 255
0.031236488 -0.032538325 -0.020523293 255 255 255
-0.048622612 -0.031580459 -0.020525115 255 255 255
0.031341966 -0.031570684 -0.020509353 255 255 255
-0.048466515 -0.030591357 -0.020528683 255 255 255
0.031400699 -0.030570677 -0.020534635 255 255 255
-0.048316699 -0.029607726 -0.020513089 255 255 255
0.031501725 -0.029579123 -0.020497533 255 255 255
-0.048150379 -0.028551081 -0.0205034 255 255 255
-0.047978614 -0.028192118 -0.020923555 255 255 255
0.031431958 -0.028601408 -0.020511469 255 255 255
-0.048034236 -0.027695885 -0.020321138 255 255 255
-0.047895685 -0.027467981 -0.020685788 255 255 255
0.03142345 -0.027590115 -0.020560648 255 255 255
-0.047765069 -0.026582062 -0.020558709 255 255 255
0.031493828 -0.026592121 -0.020523554 255 255 255
-0.047547624 -0.025532102 -0.020545321 255 255 255
0.031583682 -0.025583843 -0.020482663 255 255 255
-0.047352586 -0.02456772 -0.020495877 255 255 255
0.03172962 -0.024603669 -0.020580931 255 255 255
-0.047130175 -0.023568287 -0.020483827 255 255 255
-0.046970051 -0.023258785 -0.020856887 255 255 255
0.031834818 -0.023604194 -0.020525591 255 255 255
0.032008819 -0.023692118 -0.020923555 255 255 255
-0.047023993 -0.022828665 -0.020233296 255 255 255
-0.046842553 -0.022533523 -0.020621154 255 255 255
0.031871993 -0.022566626 -0.020405529 255 255 255
0.032051358 -0.022525452 -0.020890221 255 255 255
-0.046633352 -0.021567943 -0.020542502 255 255 255
0.031922553 -0.021521447 -0.020334031 255 255 255
0.032053862 -0.021608785 -0.020773554 255 255 255
-0.046404377 -0.020581935 -0.020487033 255 255 255
0.031925779 -0.02059212 -0.020405728 255 255 255
0.032043725 -0.020614339 -0.020834666 255 255 255
-0.046157189 -0.019624172 -0.020485377 255 255 255
-0.04594022 -0.019258784 -0.020856887 255 255 255
0.031917125 -0.019539826 -0.020511013 255 255 255
0.032036666 -0.019758783 -0.020856887 255 255 255
-0.046022628 -0.01884101 -0.020216042 255 255 255
-0.04583038 -0.018498505 -0.020585768 255 255 255
0.031838223 -0.018564463 -0.020512991 255 255 255
-0.045597062 -0.017568951 -0.020516906 255 255 255
0.031759709 -0.017628036 -0.020558435 255 255 255
-0.045309227 -0.016593548 -0.020561729 255 255 255
0.031639013 -0.016546613 -0.020533249 255 255 255
-0.045120172 -0.015669605 -0.020375356 255 255 255
-0.044897746 -0.015395822 -0.020809688 255 255 255
0.03152087 -0.015548041 -0.020522308 255 255 255
-0.045010637 -0.014922135 -0.020117208 255 255 255
-0.04475363 -0.014543228 -0.020545367 255 255 255
0.031381842 -0.01457468 -0.020505959 255 255 255
-0.044487793 -0.013539153 -0.020499235 255 255 255
0.030993709 -0.01319212 -0.020982496 255 255 255
0.031254247 -0.013626385 -0.02047061 255 255 255
-0.044230852 -0.012608134 -0.020494154 255 255 255
-0.043945033 -0.01219212 -0.020923555 255 255 255
0.030982299 -0.012506406 -0.020895282 255 255 255
0.031200297 -0.012607505 -0.020408008 255 255 255
-0.044057608 -0.011655975 -0.020289725 255 255 255
-0.043851402 -0.01146978 -0.020675244 255 255 255
0.030951902 -0.011543862 -0.020834614 255 255 255
0.031172669 -0.011626058 -0.020385066 255 255 255
-0.043631084 -0.010570357 -0.020572938 255 255 255
0.030938672 -0.010545967 -0.020784579 255 255 255
0.031177871 -0.01056712 -0.020314606 255 255 255
-0.0433749 -0.0095524704 -0.020507583 255 255 255
0.030896429 -0.0095698992 -0.02078823 255 255 255
0.031145105 -0.0096131749 -0.020299826 255 255 255
-0.043162901 -0.0086191315 -0.020417528 255 255 255
-0.042914655 -0.0084276423 -0.020856887 255 255 255
0.03087743 -0.0085457237 -0.020718796 255 255 255
0.03114255 -0.0086691678 -0.020234065 255 255 255
-0.043029826 -0.0078752097 -0.020229666 255 255 255
-0.042768627 -0.007550979 -0.020591984 255 255 255
0.03084502 -0.0076277731 -0.020677701 255 255 255
0.031107031 -0.0076382747 -0.020177424 255 255 255
-0.042511873 -0.0065617575 -0.020532373 255 255 255
0.030799305 -0.0065135751 -0.020635843 255 255 255
0.03106166 -0.0066778352 -0.020180698 255 255 255
-0.042249221 -0.0055939504 -0.020495452 255 255 255
-0.041953634 -0.0052921209 -0.020923555 255 255 255
0.030771717 -0.005622494 -0.020590084 255 255 255
0.031015502 -0.0056921211 -0.020123554 255 255 255
-0.042080082 -0.004673359 -0.020289496 255 255 255
-0.041805312 -0.0044720834 -0.0207281 255 255 255
0.030753814 -0.0045810095 -0.020502158 255 255 255
-0.041627608 -0.0035818077 -0.02054273 255 255 255
0.030635763 -0.0035627093 -0.020573247 255 255 255
-0.041348014 -0.0025903042 -0.020502008 255 255 255
0.030614465 -0.0025839501 -0.020510299 255 255 255
-0.041141387 -0.0016784588 -0.020364882 255 255 255
-0.040857662 -0.0015005218 -0.020807426 255 255 255
0.030546125 -0.001612186 -0.020503394 255 255 255
-0.041013673 -0.00083713821 -0.020117139 255 255 255
-0.04069864 -0.00057540438 -0.020570274 255 255 255
0.030443089 -0.00058202591 -0.020539319 255 255 255
-0.040431712 0.00039439622 -0.020502511 255 255 255
0.030384276 0.00042532498 -0.020490373 255 255 255
-0.040192053 0.0013643672 -0.02037213 255 255 255
-0.039872222 0.0016430824 -0.020795111 255 255 255
0.029993711 0.0015460699 -0.020947248 255 255 255
0.03030123 0.0013952607 -0.020476533 255 255 255
-0.040035237 0.0022390753 -0.020156395 255 255 255
-0.039718129 0.0024978921 -0.020563873 255 255 255
0.029953334 0.0023634336 -0.020879393 255 255 255
0.030270653 0.0024325857 -0.020383969 255 255 255
-0.039478872 0.0034313179 -0.020569898 255 255 255
0.029903924 0.0035066574 -0.020809172 255 255 255
0.030218998 0.0033955905 -0.020319805 255 255 255
-0.03920301 0.0044195238 -0.020522758 255 255 255
-0.038937196 0.0047078766 -0.020923555 255 255 255
0.029849596 0.0044355653 -0.020706991 255 255 255
0.030175107 0.0044153621 -0.020231381 255 255 255
-0.039050784 0.0051988838 -0.020187227 255 255 255
-0.03873061 0.0054763067 -0.020633752 255 255 255
0.029772149 0.0054481728 -0.020648174 255 255 255
0.030120134 0.0053189886 -0.020145606 255 255 255
-0.038435802 0.0064573735 -0.020515326 255 255 255
0.02970738 0.006426807 -0.02056253 255 255 255
0.030023439 0.0062078773 -0.020123554 255 255 255
-0.038187422 0.0073390636 -0.020421516 255 255 255
-0.037852082 0.007565985 -0.020828739 255 255 255
0.029656086 0.0074038706 -0.02048202 255 255 255
-0.038055718 0.0081905872 -0.020193204 255 255 255
-0.037750989 0.0084762163 -0.02059643 255 255 255
0.029512744 0.0084235035 -0.020492844 255 255 255
-0.03800628 0.0090078767 -0.020044276 255 255 255
-0.037531897 0.0094174203 -0.020509748 255 255 255
0.028987838 0.0096575785 -0.020932393 255 255 255
0.029379023 0.0093913982 -0.020486902 255 255 255
-0.037197314 0.010361055 -0.020340249 255 255 255
-0.036845017 0.01053567 -0.020774404 255 255 255
0.028936096 0.010449477 -0.020879092 255 255 255
0.029309738 0.01040564 -0.020399116 255 255 255
-0.037078928 0.011202653 -0.020116014 255 255 255
-0.036659371 0.011453493 -0.020543542 255 255 255
0.028840128 0.011429288 -0.020785492 255 255 255
0.029240441 0.011382264 -0.02028439 255 255 255
-0.036412187 0.01244501 -0.020515155 255 255 255
-0.035873692 0.012804274 -0.020923555 255 255 255
0.028774234 0.012428878 -0.020678869 255 255 255
0.029156921 0.012377107 -0.020186314 255 255 255
-0.036174648 0.013317507 -0.020236298 255 255 255
-0.035745945 0.013494369 -0.020683136 255 255 255
0.028699337 0.013436371 -0.020554878 255 255 255
0.029081374 0.01334121 -0.020107912 255 255 255
-0.036025953 0.014188819 -0.020138251 255 255 255
-0.035595052 0.014431138 -0.020574167 255 255 255
0.028576337 0.014421303 -0.020514524 255 255 255
-0.035296507 0.015380573 -0.020508127 255 255 255
-0.034909271 0.015657876 -0.020875402 255 255 255
0.027993711 0.01559608 -0.020953253 255 255 255
0.028434386 0.015395238 -0.020486705 255 255 255
-0.035120875 0.016308594 -0.020255275 255 255 255
-0.034639854 0.016535537 -0.020730833 255 255 255
0.027910246 0.016484749 -0.020849148 255 255 255
0.028314551 0.016412243 -0.02040172 255 255 255
-0.035006281 0.017007876 -0.020038657 255 255 255
-0.034399398 0.017407425 -0.020492788 255 255 255
-0.033956021 0.017607875 -0.020923555 255 255 255
0.027819715 0.017419415 -0.020746209 255 255 255
0.028242864 0.017354721 -0.0202723 255 255 255
-0.034211315 0.018383639 -0.020333488 255 255 255
-0.033728983 0.018551597 -0.020742754 255 255 255
0.027713835 0.018422524 -0.020647474 255 255 255
0.028157761 0.018357346 -0.020170508 255 255 255
-0.034006279 0.019207876 -0.020006087 255 255 255
-0.03348859 0.019420408 -0.020550586 255 255 255
0.027588736 0.019436659 -0.020560645 255 255 255
0.028057037 0.019107874 -0.020123554 255 255 255
0.063859448 0.019849639 -0.020912882 255 255 255
0.064614072 0.019676501 -0.020783773 255 255 255
0.065509856 0.019691154 -0.020864753 255 255 255
-0.033269916 0.020393876 -0.020432437 255 255 255
-0.032838274 0.02061661 -0.02085897 255 255 255
0.026987389 0.020579813 -0.020941461 255 255 255
0.027480714 0.020379592 -0.020484477 255 255 255
0.062786847 0.020727197 -0.020810751 255 255 255
0.063567691 0.020489648 -0.020540625 255 255 255
0.064580292 0.020336596 -0.020306436 255 255 255
0.065609775 0.020441191 -0.020488881 255 255 255
0.066264704 0.020512218 -0.02079721 255 255 255
-0.033072595 0.021193966 -0.020112196 255 255 255
-0.032661099 0.021468746 -0.020588648 255 255 255
0.026880426 0.021479245 -0.020853944 255 255 255
0.027390344 0.021364871 -0.020366192 255 255 255
0.060993701 0.02192682 -0.020923555 255 255 255
0.061668497 0.021635601 -0.020649996 255 255 255
0.062485643 0.021312688 -0.020402512 255 255 255
0.063184105 0.021095427 -0.020164408 255 255 255
0.065758005 0.021213653 -0.020166531 255 255 255
0.066409819 0.021448724 -0.020562304 255 255 255
-0.032348271 0.02237968 -0.020498358 255 255 255
-0.03180436 0.022578793 -0.020855753 255 255 255
0.026761651 0.022441639 -0.020740192 255 255 255
0.027293403 0.02236517 -0.020238567 255 255 255
0.057993703 0.022868505 -0.020923555 255 255 255
0.058593705 0.022735059 -0.020923555 255 255 255
0.059707306 0.022712318 -0.020804001 255 255 255
0.06057661 0.02248909 -0.020504126 255 255 255
0.06135555 0.022140987 -0.020275313 255 255 255
0.066478655 0.022405835 -0.020475188 255 255 255
-0.032168843 0.02334502 -0.020256476 255 255 255
-0.031623602 0.023521356 -0.020720188 255 255 255
0.026645802 0.023445817 -0.020623488 255 255 255
0.027160555 0.023351692 -0.020153316 255 255 255
0.056417178 0.023820808 -0.020544136 255 255 255
0.057560086 0.023461517 -0.020385202 255 255 255
0.05871037 0.023366325 -0.020306723 255 255 255
0.059538912 0.023211736 -0.020324953 255 255 255
0.060175594 0.023007875 -0.020104036 255 255 255
0.066480935 0.023399955 -0.0205508 255 255 255
-0.032006282 0.024007874 -0.020027388 255 255 255
-0.031373277 0.024306837 -0.020448005 255 255 255
-0.030794747 0.02466738 -0.020867726 255 255 255
0.02599371 0.024754466 -0.020915117 255 255 255
0.026536014 0.024469113 -0.020490408 255 255 255
0.027029829 0.024107873 -0.020123554 255 255 255
0.054793704 0.024915868 -0.020523554 255 255 255
0.055463895 0.024516881 -0.020349659 255 255 255
0.066288829 0.024410736 -0.020519271 255 255 255
-0.031188769 0.025399875 -0.020278782 255 255 255
-0.030648094 0.025531532 -0.020752886 255 255 255
0.025892546 0.025482414 -0.020843146 255 255 255
0.026433965 0.025409032 -0.020373579 255 255 255
0.053887997 0.025668973 -0.02057096 255 255 255
0.054188807 0.025407873 -0.020523554 255 255 255
0.065897711 0.025588082 -0.020476887 255 255 255
0.066111274 0.02514676 -0.020643635 255 255 255
-0.031000141 0.026007874 -0.020123554 255 255 255
-0.030476274 0.0263901 -0.020502171 255 255 255
-0.029777035 0.026727315 -0.020896679 255 255 255
0.025729837 0.02645986 -0.02074871 255 255 255
0.026336577 0.026331674 -0.020245099 255 255 255
0.052890304 0.026711453 -0.020256888 255 255 255
0.065540686 0.026437171 -0.020491449 255 255 255
-0.030207409 0.027405666 -0.020321175 255 255 255
-0.029677261 0.027494207 -0.020768629 255 255 255
0.025606465 0.027424863 -0.020621901 255 255 255
0.026180191 0.027323844 -0.020144237 255 255 255
0.064893618 0.027652649 -0.020514542 255 255 255
0.065150142 0.02718091 -0.020523552 255 255 255
-0.030091785 0.028099528 -0.020095918 255 255 255
-0.02940727 0.028372977 -0.020511169 255 255 255
-0.028767984 0.028673911 -0.02090176 255 255 255
0.024914287 0.028652322 -0.020909742 255 255 255
0.025528213 0.028397154 -0.02044452 255 255 255
0.026009167 0.028007874 -0.020123554 255 255 255
0.051280841 0.028337408 -0.020256888 255 255 255
0.064410053 0.028422734 -0.020513298 255 255 255
-0.029176928 0.029335376 -0.020208487 255 255 255
-0.028557602 0.029479906 -0.020711457 255 255 255
0.024798833 0.029491741 -0.0207891 255 255 255
0.025397481 0.029373026 -0.020310983 255 255 255
0.049993705 0.029720385 -0.020523554 255 255 255
0.050380725 0.029308131 -0.020523554 255 255 255
0.063672416 0.029493472 -0.020505371 255 255 255
0.064028703 0.029007876 -0.020523554 255 255 255
-0.02900628 0.030007875 -0.020049162 255 255 255
-0.028370677 0.030389208 -0.020451719 255 255 255
-0.02775568 0.030605398 -0.020878453 255 255 255
0.024645889 0.030412488 -0.020667059 255 255 255
0.025246693 0.030383488 -0.0201697 255 255 255
0.049380511 0.030431576 -0.020523554 255 255 255
0.062780157 0.030657886 -0.020533726 255 255 255
0.063194044 0.030107889 -0.020523552 255 255 255
-0.028148519 0.031341918 -0.020205086 255 255 255
-0.027531177 0.031497419 -0.020657005 255 255 255
0.023937913 0.031615697 -0.020918122 255 255 255
0.024550943 0.031408466 -0.020483894 255 255 255
0.025135225 0.031107873 -0.020076377 255 255 255
0.047988366 0.031807873 -0.020123554 255 255 255
0.048539303 0.031617533 -0.020574709 255 255 255
0.049193706 0.031007875 -0.020909544 255 255 255
0.061884277 0.03170719 -0.020520343 255 255 255
0.062313609 0.031224266 -0.02052355 255 255 255
-0.027366308 0.032369368 -0.020380978 255 255 255
-0.026710961 0.03259974 -0.020822689 255 255 255
0.023837203 0.032453183 -0.02077706 255 255 255
0.024409262 0.032394834 -0.020338953 255 255 255
0.0477257 0.032505915 -0.020336816 255 255 255
0.048351411 0.032380391 -0.020849302 255 255 255
0.060886826 0.032793161 -0.020523554 255 255 255
0.061347745 0.032313049 -0.020529801 255 255 255
-0.027118683 0.033224646 -0.02017446 255 255 255
-0.026499987 0.033456951 -0.020599652 255 255 255
-0.025825387 0.033839617 -0.020937359 255 255 255
0.023615723 0.03346191 -0.020663777 255 255 255
0.024293171 0.033357129 -0.020181892 255 255 255
0.046861578 0.033662148 -0.020220129 255 255 255
0.047511116 0.033371653 -0.020621292 255 255 255
0.048078805 0.033007875 -0.020923555 255 255 255
0.059889015 0.033757731 -0.020473557 255 255 255
0.060379054 0.033296727 -0.020523556 255 255 255
-0.026298987 0.034389921 -0.020316983 255 255 255
-0.025621474 0.03452976 -0.020778488 255 255 255
0.022919636 0.034563065 -0.020882877 255 255 255
0.023539664 0.03443817 -0.020455435 255 255 255
0.024155917 0.034107871 -0.020094905 255 255 255
0.045871425 0.034685887 -0.020101346 255 255 255
0.046575971 0.034418814 -0.020453058 255 255 255
0.047249369 0.034254361 -0.020859882 255 255 255
0.058810111 0.034727789 -0.02052355 255 255 255
0.05937795 0.034225147 -0.020512298 255 255 255
-0.026075339 0.035127871 -0.020128395 255 255 255
-0.025428921 0.035422742 -0.02051755 255 255 255
-0.024764273 0.03573481 -0.020887539 255 255 255
0.02268951 0.035470501 -0.02078273 255 255 255
0.023401154 0.035410333 -0.020283172 255 255 255
0.045674928 0.035447691 -0.020232661 255 255 255
0.046475835 0.035369735 -0.02072225 255 255 255
0.057616595 0.035611134 -0.020513231 255 255 255
0.058337256 0.035093807 -0.020548552 255 255 255
-0.025212206 0.03633327 -0.020246893 255 255 255
-0.02453883 0.036518175 -0.020699468 255 255 255
0.021965854 0.03667454 -0.020931775 255 255 255
0.022560136 0.036403835 -0.020602774 255 255 255
0.023190912 0.036385175 -0.020161834 255 255 255
0.0456669 0.036417283 -0.020243917 255 255 255
0.04647097 0.036447827 -0.020740112 255 255 255
0.055792697 0.036804773 -0.020503981 255 255 255
0.056519665 0.036363136 -0.020507339 255 255 255
0.057086997 0.03600787 -0.020523554 255 255 255
-0.025006281 0.037207872 -0.020020651 255 255 255
-0.02439826 0.037374098 -0.020393007 255 255 255
-0.023695584 0.037483428 -0.0208357 255 255 255
0.021782028 0.03747727 -0.020833116 255 255 255
0.022528237 0.037388723 -0.020343022 255 255 255
0.023020739 0.037007872 -0.020123554 255 255 255
0.04587454 0.03715558 -0.020115528 255 255 255
0.046607945 0.037444226 -0.020399181 255 255 255
0.047463555 0.037630282 -0.020803878 255 255 255
0.048193704 0.03799662 -0.020923555 255 255 255
0.053617831 0.037841853 -0.020546628 255 255 255
0.05454443 0.037452519 -0.020526387 255 255 255
0.055247698 0.037109163 -0.020488258 255 255 255
-0.024138547 0.038229104 -0.020182459 255 255 255
-0.023514831 0.038479626 -0.020598779 255 255 255
-0.022902111 0.038881622 -0.020923555 255 255 255
0.020993711 0.038885489 -0.020948287 255 255 255
0.021589909 0.038488764 -0.020669457 255 255 255
0.022326171 0.038416453 -0.020178726 255 255 255
0.046907499 0.038027965 -0.020137083 255 255 255
0.047675684 0.038210105 -0.020369068 255 255 255
0.048565585 0.038389251 -0.0205229 255 255 255
0.049581267 0.038511503 -0.020535389 255 255 255
0.050595663 0.038516786 -0.020524463 255 255 255
0.051600199 0.038400471 -0.020506341 255 255 255
0.05255435 0.038180813 -0.020503294 255 255 255
0.053113636 0.038007509 -0.020590222 255 255 255
-0.02333121 0.039382998 -0.020368451 255 255 255
-0.022529334 0.039525952 -0.020726912 255 255 255
0.020830018 0.039490428 -0.020867053 255 255 255
0.021573136 0.039450094 -0.020395461 255 255 255
0.022156291 0.039141208 -0.020091869 255 255 255
-0.023150004 0.040130287 -0.020114817 255 255 255
-0.02240178 0.040413182 -0.020356765 255 255 255
-0.021631481 0.040527221 -0.020814074 255 255 255
0.019993713 0.040879585 -0.02095142 255 255 255
0.020615261 0.040463418 -0.020711323 255 255 255
0.021404264 0.040335771 -0.020257408 255 255 255
-0.022133037 0.041207097 -0.020158701 255 255 255
-0.02139388 0.041422449 -0.020536311 255 255 255
-0.020754701 0.041600879 -0.020846158 255 255 255
0.019826397 0.041545529 -0.020852579 255 255 255
0.020526683 0.041428 -0.02047007 255 255 255
0.021173729 0.041207165 -0.020140929 255 255 255
-0.02126419 0.042330761 -0.020213893 255 255 255
-0.020514153 0.042493396 -0.020689864 255 255 255
-0.019740114 0.042745911 -0.020927304 255 255 255
