ply
format ascii 1.0
comment PCL generated
element vertex 162
property float x
property float y
property float z
property uchar red
property uchar green
property uchar blue
element camera 1
property float view_px
property float view_py
property float view_pz
property float x_axisx
property float x_axisy
property float x_axisz
property float y_axisx
property float y_axisy
property float y_axisz
property float z_axisx
property float z_axisy
property float z_axisz
property float focal
property float scalex
property float scaley
property float centerx
property float centery
property int viewportx
property int viewporty
property float k1
property float k2
end_header
0.038631294 -0.033455435 -0.043643828 255 255 255
0.039456241 -0.033643391 -0.043413989 255 255 255
0.040464576 -0.033462577 -0.043121163 255 255 255
0.038531773 -0.032679047 -0.043240469 255 255 255
0.039593671 -0.032612793 -0.043328151 255 255 255
0.040568881 -0.032585371 -0.04326722 255 255 255
0.041223869 -0.032423031 -0.043087147 255 255 255
0.038819723 -0.03161718 -0.043114316 255 255 255
0.039572984 -0.031582415 -0.043281626 255 255 255
0.040592972 -0.031571683 -0.043258764 255 255 255
0.041259617 -0.031693079 -0.043081645 255 255 255
0.038993709 -0.030992117 -0.043022227 255 255 255
0.039655261 -0.030908894 -0.043109715 255 255 255
0.040433716 -0.030918267 -0.043099739 255 255 255
0.03855506 -0.034615092 -0.042534806 255 255 255
0.039618868 -0.034518026 -0.042540912 255 255 255
0.040525138 -0.034282781 -0.042419765 255 255 255
0.041238539 -0.034230843 -0.042181715 255 255 255
0.04074163 -0.03379498 -0.042824812 255 255 255
0.041549452 -0.033555582 -0.042483933 255 255 255
0.042168345 -0.033276368 -0.042156428 255 255 255
0.037515193 -0.032367889 -0.042717494 255 255 255
0.038155686 -0.032399435 -0.042939279 255 255 255
0.04168389 -0.032658648 -0.042778824 255 255 255
0.042288825 -0.032560233 -0.04228032 255 255 255
0.037617903 -0.031571165 -0.042432301 255 255 255
0.038332269 -0.031534538 -0.042894606 255 255 255
0.041684989 -0.031457674 -0.04275598 255 255 255
0.042286087 -0.031625509 -0.042275749 255 255 255
0.037831157 -0.030749047 -0.04221658 255 255 255
0.038542248 -0.030530415 -0.042529654 255 255 255
0.039581686 -0.030378638 -0.042756081 255 255 255
0.040653925 -0.030421026 -0.042695686 255 255 255
0.041482333 -0.030604973 -0.042420741 255 255 255
0.042116642 -0.030925451 -0.042104702 255 255 255
0.038828932 -0.02993408 -0.042143133 255 255 255
0.039590526 -0.029865513 -0.042278282 255 255 255
0.040529996 -0.029877977 -0.042228907 255 255 255
0.041146316 -0.029992118 -0.042123552 255 255 255
0.038862344 -0.035148714 -0.041203789 255 255 255
0.039561316 -0.035238329 -0.041318234 255 255 255
0.040481169 -0.035152733 -0.041275986 255 255 255
0.036935177 -0.034130219 -0.041712739 255 255 255
0.037578117 -0.034437269 -0.041483171 255 255 255
0.038591184 -0.034798887 -0.041446965 255 255 255
0.039669033 -0.034700736 -0.041497648 255 255 255
0.040506583 -0.03466199 -0.041578144 255 255 255
0.041500494 -0.034512598 -0.041502416 255 255 255
0.04212283 -0.034126237 -0.041223548 255 255 255
0.036449563 -0.033658497 -0.041480709 255 255 255
0.041901395 -0.033947509 -0.041875158 255 255 255
0.042467337 -0.033512868 -0.041457329 255 255 255
0.042774998 -0.032564111 -0.041545115 255 255 255
0.036632326 -0.031340834 -0.041648623 255 255 255
0.037173342 -0.031277459 -0.041887358 255 255 255
0.042715766 -0.031554252 -0.041556314 255 255 255
0.036776766 -0.030855296 -0.041151311 255 255 255
0.037493333 -0.030496916 -0.041576196 255 255 255
0.038126968 -0.030144589 -0.041923549 255 255 255
0.041884914 -0.030232709 -0.041717194 255 255 255
0.042370487 -0.030618364 -0.041465905 255 255 255
0.037887212 -0.029853441 -0.041255917 255 255 255
0.038581207 -0.029578308 -0.041500431 255 255 255
0.039594881 -0.029357359 -0.04161346 255 255 255
0.040591724 -0.029431552 -0.04155086 255 255 255
0.041469365 -0.029654726 -0.041366655 255 255 255
0.038672276 -0.035183497 -0.040534183 255 255 255
0.039593704 -0.035355173 -0.040523551 255 255 255
0.040613152 -0.035222545 -0.040523555 255 255 255
0.037595112 -0.034485701 -0.040522955 255 255 255
0.038467117 -0.034834761 -0.040653784 255 255 255
0.039586816 -0.034395996 -0.040517602 255 255 255
0.040188722 -0.034342915 -0.040764939 255 255 255
0.041566055 -0.034740143 -0.040526096 255 255 255
0.042220265 -0.034216754 -0.040450919 255 255 255
0.036664717 -0.033472147 -0.040563211 255 255 255
0.03709456 -0.033934973 -0.04043784 255 255 255
0.042650823 -0.033590324 -0.040546201 255 255 255
0.035915002 -0.032409951 -0.040750816 255 255 255
0.036261871 -0.032690402 -0.040386327 255 255 255
0.042975668 -0.032790869 -0.040578481 255 255 255
0.043022681 -0.032405447 -0.040550217 255 255 255
0.035865135 -0.031602059 -0.040625829 255 255 255
0.036179427 -0.031348173 -0.04028514 255 255 255
0.042962633 -0.031466804 -0.0405965 255 255 255
0.043025911 -0.031846661 -0.040469009 255 255 255
0.036665007 -0.030652929 -0.040561069 255 255 255
0.037217654 -0.030211512 -0.040846646 255 255 255
0.042601276 -0.030568892 -0.040552761 255 255 255
0.037540875 -0.029610455 -0.040664293 255 255 255
0.038430218 -0.029221175 -0.040869657 255 255 255
0.041861795 -0.029549429 -0.040839933 255 255 255
0.038583014 -0.028918356 -0.040897358 255 255 255
0.038783614 -0.035141069 -0.03966666 255 255 255
0.039574407 -0.035220496 -0.039501358 255 255 255
0.04049528 -0.035157099 -0.039621502 255 255 255
0.03766698 -0.03447298 -0.03958153 255 255 255
0.038439896 -0.034923747 -0.039411858 255 255 255
0.039343707 -0.034392115 -0.039702512 255 255 255
0.040855389 -0.034956574 -0.039311528 255 255 255
0.041579701 -0.034599144 -0.039505403 255 255 255
0.042160641 -0.034200292 -0.039651576 255 255 255
0.036943257 -0.033372656 -0.039613903 255 255 255
0.037179735 -0.033779755 -0.039411929 255 255 255
0.042543259 -0.033590835 -0.039495569 255 255 255
0.036668025 -0.032568742 -0.039540898 255 255 255
0.042867288 -0.032615069 -0.039460063 255 255 255
0.043015718 -0.03229212 -0.039923549 255 255 255
0.036569823 -0.031552702 -0.039517444 255 255 255
0.042864211 -0.03154166 -0.039507613 255 255 255
0.043018918 -0.031992115 -0.039923549 255 255 255
0.036809973 -0.030665383 -0.039705593 255 255 255
0.037166655 -0.030434152 -0.039204642 255 255 255
0.042580266 -0.030620789 -0.039500829 255 255 255
0.036759704 -0.029449528 -0.039516021 255 255 255
0.037138127 -0.029869497 -0.039236113 255 255 255
0.039693706 -0.035018515 -0.03892355 255 255 255
0.037873343 -0.034236912 -0.038799588 255 255 255
0.038610891 -0.034483094 -0.038535733 255 255 255
0.039573006 -0.034684692 -0.038455918 255 255 255
0.040586609 -0.034628518 -0.038515098 255 255 255
0.041434616 -0.03431752 -0.038630854 255 255 255
0.037595 -0.033578273 -0.038497046 255 255 255
0.038189646 -0.033904031 -0.038168177 255 255 255
0.041832287 -0.033683479 -0.038337346 255 255 255
0.042282768 -0.033432014 -0.038683914 255 255 255
0.036939032 -0.032466985 -0.038825173 255 255 255
0.037299439 -0.032642689 -0.038340222 255 255 255
0.041993707 -0.032992117 -0.038061358 255 255 255
0.042432532 -0.032589577 -0.038504202 255 255 255
0.036958892 -0.031651691 -0.038868263 255 255 255
0.037360098 -0.031519145 -0.038386017 255 255 255
0.041993707 -0.031114576 -0.038091816 255 255 255
0.042415407 -0.031568665 -0.038494229 255 255 255
0.03762668 -0.03056117 -0.038560506 255 255 255
0.038148675 -0.030230338 -0.038247842 255 255 255
0.041956563 -0.030525532 -0.038194872 255 255 255
0.042355698 -0.03048778 -0.038550373 255 255 255
0.037397347 -0.029827701 -0.038511682 255 255 255
0.038893707 -0.034057759 -0.037923552 255 255 255
0.03966986 -0.034161564 -0.037861444 255 255 255
0.04052072 -0.034154616 -0.037906997 255 255 255
0.037906948 -0.033230264 -0.037919436 255 255 255
0.038616501 -0.033523589 -0.037675075 255 255 255
0.03953775 -0.033579782 -0.037473988 255 255 255
0.040611915 -0.03357606 -0.037549026 255 255 255
0.041357394 -0.033471555 -0.037806593 255 255 255
0.037806638 -0.032524176 -0.037810594 255 255 255
0.038590476 -0.032607827 -0.037385579 255 255 255
0.039593708 -0.032592114 -0.037172977 255 255 255
0.040639978 -0.032589618 -0.037266318 255 255 255
0.041604761 -0.032581221 -0.037673511 255 255 255
0.042040177 -0.032192118 -0.037923552 255 255 255
0.03786356 -0.031630926 -0.03784626 255 255 255
0.038562585 -0.031568859 -0.037474573 255 255 255
0.039557818 -0.031547431 -0.037249804 255 255 255
0.040608171 -0.031574514 -0.037325829 255 255 255
0.041590761 -0.031575896 -0.037706096 255 255 255
0.03792179 -0.03019575 -0.037641477 255 255 255
0.038475852 -0.030567143 -0.037482359 255 255 255
0.039530497 -0.03084179 -0.037249494 255 255 255
0.040684272 -0.030646197 -0.0372747 255 255 255
0 0 0 1 0 0 0 1 0 0 0 1 0 0 0 0 0 162 1 0 0
