ply
format ascii 1.0
comment PCL generated
element vertex 330
property float x
property float y
property float z
property uchar red
property uchar green
property uchar blue
element camera 1
property float view_px
property float view_py
property float view_pz
property float x_axisx
property float x_axisy
property float x_axisz
property float y_axisx
property float y_axisy
property float y_axisz
property float z_axisx
property float z_axisy
property float z_axisz
property float focal
property float scalex
property float scaley
property float centerx
property float centery
property int viewportx
property int viewporty
property float k1
property float k2
end_header
-0.043263424 0.032801457 0.030920247 255 255 255
-0.042464651 0.032779578 0.030909516 255 255 255
-0.041646279 0.032860342 0.030928329 255 255 255
-0.04422776 0.033554893 0.030873273 255 255 255
-0.043472081 0.033421479 0.030700307 255 255 255
-0.042408861 0.033430796 0.030630028 255 255 255
-0.041403215 0.033371903 0.030788517 255 255 255
-0.045006279 0.034607872 0.030989939 255 255 255
-0.044426609 0.034428205 0.030766089 255 255 255
-0.043407235 0.034404829 0.030480167 255 255 255
-0.042401787 0.034381494 0.030427769 255 255 255
-0.041438274 0.034422271 0.030574441 255 255 255
-0.045006279 0.035207871 0.030999182 255 255 255
-0.044398885 0.035399348 0.030776307 255 255 255
-0.043422427 0.035432518 0.030520974 255 255 255
-0.042396966 0.03545852 0.030455595 255 255 255
-0.041424736 0.035431657 0.030590264 255 255 255
-0.044203028 0.036230911 0.030868588 255 255 255
-0.043410506 0.036454141 0.030745752 255 255 255
-0.042411834 0.036485918 0.030705845 255 255 255
-0.041469615 0.036380854 0.030812841 255 255 255
-0.04330628 0.037007872 0.030952793 255 255 255
-0.04240628 0.037007872 0.030921748 255 255 255
-0.041806281 0.037007872 0.030983465 255 255 255
-0.044152472 0.031796049 0.03185698 255 255 255
-0.043383472 0.031651434 0.031737097 255 255 255
-0.042442717 0.031558685 0.0316962 255 255 255
-0.041436281 0.031680755 0.03164281 255 255 255
-0.045214754 0.032617912 0.031799521 255 255 255
-0.044435423 0.032428578 0.031506903 255 255 255
-0.043462738 0.032354396 0.031240735 255 255 255
-0.042375505 0.032268915 0.031205585 255 255 255
-0.041368809 0.032384492 0.031219989 255 255 255
-0.040585268 0.032370754 0.031182712 255 255 255
-0.046014942 0.03366575 0.031893749 255 255 255
-0.045420565 0.033434983 0.031513911 255 255 255
-0.044664666 0.033283547 0.031133795 255 255 255
-0.040706281 0.033007875 0.031022601 255 255 255
-0.046129074 0.034391206 0.031864632 255 255 255
-0.045518909 0.034418799 0.031343382 255 255 255
-0.046107255 0.035446577 0.031863146 255 255 255
-0.045477413 0.03540808 0.031331282 255 255 255
-0.044883646 0.035807874 0.031039439 255 255 255
-0.046006281 0.036207873 0.031961676 255 255 255
-0.045444507 0.03641827 0.031567696 255 255 255
-0.044551495 0.036563162 0.031126795 255 255 255
-0.041133694 0.036808189 0.031067345 255 255 255
-0.045213118 0.037215486 0.031789836 255 255 255
-0.044431306 0.037446488 0.031549595 255 255 255
-0.043459732 0.037495229 0.03126258 255 255 255
-0.042413447 0.037553325 0.031229984 255 255 255
-0.041378114 0.037488028 0.031389441 255 255 255
-0.044138931 0.03801664 0.031890616 255 255 255
-0.043343876 0.038113914 0.031796463 255 255 255
-0.042427331 0.038127683 0.031742692 255 255 255
-0.041474596 0.038092587 0.031848844 255 255 255
-0.044072945 0.030872211 0.032910138 255 255 255
-0.043303959 0.03079256 0.032703448 255 255 255
-0.042381275 0.030777713 0.032575976 255 255 255
-0.041425351 0.030784693 0.032735102 255 255 255
-0.040378585 0.030888423 0.032638617 255 255 255
-0.045224812 0.031666499 0.03271189 255 255 255
-0.044460878 0.031384628 0.03247619 255 255 255
-0.043460656 0.031147147 0.032245915 255 255 255
-0.042488426 0.031066818 0.03212595 255 255 255
-0.041328456 0.031022826 0.032301217 255 255 255
-0.040528942 0.0310509 0.032188252 255 255 255
-0.046151292 0.0326421 0.032707181 255 255 255
-0.045611795 0.03235336 0.032368843 255 255 255
-0.044862654 0.032007873 0.032038603 255 255 255
-0.046394508 0.033455145 0.032482155 255 255 255
-0.045834292 0.033007875 0.03204973 255 255 255
-0.046595171 0.034415681 0.032446317 255 255 255
-0.046578232 0.035438728 0.032450099 255 255 255
-0.046348441 0.036423005 0.032494184 255 255 255
-0.045852996 0.03677747 0.032065962 255 255 255
-0.046113584 0.03723539 0.032741297 255 255 255
-0.045550726 0.037552949 0.032401111 255 255 255
-0.044872984 0.037852801 0.032076437 255 255 255
-0.045177966 0.038144808 0.032706533 255 255 255
-0.044437766 0.038384221 0.032490503 255 255 255
-0.043430075 0.03862216 0.032457124 255 255 255
-0.042425808 0.038665637 0.032381691 255 255 255
-0.04141172 0.038566492 0.032452188 255 255 255
-0.04310628 0.039007872 0.032965295 255 255 255
-0.042318657 0.039007075 0.032872017 255 255 255
-0.041706279 0.039007872 0.032955401 255 255 255
-0.045006279 0.030921645 0.03377644 255 255 255
-0.044370282 0.030711118 0.033537712 255 255 255
-0.043463096 0.030461779 0.033458401 255 255 255
-0.042412527 0.030366652 0.03348808 255 255 255
-0.041395519 0.030501675 0.033444662 255 255 255
-0.040426459 0.030760279 0.03349904 255 255 255
-0.046072628 0.031833146 0.033663053 255 255 255
-0.045484237 0.031418115 0.033451818 255 255 255
-0.044805441 0.031057538 0.033225097 255 255 255
-0.039537661 0.031050544 0.033563983 255 255 255
-0.046434443 0.032426912 0.033485178 255 255 255
-0.045915082 0.032007873 0.033076439 255 255 255
-0.047085192 0.03366876 0.033687036 255 255 255
-0.046805751 0.0332832 0.033300035 255 255 255
-0.047154024 0.034423579 0.033513892 255 255 255
-0.046950158 0.034207869 0.033076439 255 255 255
-0.047157735 0.03538873 0.033539694 255 255 255
-0.046963636 0.035567872 0.033116437 255 255 255
-0.047037363 0.036199104 0.033687476 255 255 255
-0.046788119 0.036536809 0.033351511 255 255 255
-0.046387237 0.037402358 0.03350459 255 255 255
-0.045899522 0.03783315 0.033143103 255 255 255
-0.046022911 0.038023531 0.033823133 255 255 255
-0.045433342 0.038365681 0.033485819 255 255 255
-0.044583466 0.038821876 0.033348195 255 255 255
-0.043706279 0.038968019 0.033076439 255 255 255
-0.044246189 0.039098091 0.03362532 255 255 255
-0.043390505 0.039248526 0.033475041 255 255 255
-0.042432524 0.039330538 0.033423193 255 255 255
-0.041418217 0.03925046 0.033328366 255 255 255
-0.040501624 0.039541282 0.033365041 255 255 255
-0.045145094 0.030820377 0.034500819 255 255 255
-0.044432938 0.030478297 0.034481332 255 255 255
-0.043441378 0.03018813 0.034466479 255 255 255
-0.042394381 0.03014438 0.034437187 255 255 255
-0.041423034 0.030257456 0.034466706 255 255 255
-0.040427878 0.030586582 0.034482975 255 255 255
-0.039516885 0.030816786 0.03441675 255 255 255
-0.046201345 0.031699006 0.034471318 255 255 255
-0.045651045 0.03119785 0.034430634 255 255 255
-0.039298948 0.031131448 0.034513231 255 255 255
-0.047007136 0.032865666 0.034630209 255 255 255
-0.046697166 0.032369539 0.034438793 255 255 255
-0.047181528 0.033408441 0.034468759 255 255 255
-0.046984069 0.033007875 0.034076437 255 255 255
-0.047393184 0.034392811 0.034499705 255 255 255
-0.047384601 0.035394866 0.034495737 255 255 255
-0.04714958 0.036405914 0.034495369 255 255 255
-0.04694476 0.036807872 0.034176439 255 255 255
-0.046616752 0.037460513 0.034458432 255 255 255
-0.046112198 0.038103234 0.034546431 255 255 255
-0.045477141 0.03862147 0.034452938 255 255 255
-0.045006279 0.039008848 0.034869105 255 255 255
-0.044425286 0.039245099 0.034475055 255 255 255
-0.043431938 0.039581973 0.034460708 255 255 255
-0.042527709 0.039649956 0.034321718 255 255 255
-0.041406281 0.039730012 0.034476437 255 255 255
-0.040695414 0.039856631 0.034591574 255 255 255
-0.045204371 0.030816583 0.035502944 255 255 255
-0.044456203 0.030445749 0.035484821 255 255 255
-0.04344504 0.030163774 0.03545307 255 255 255
-0.042406276 0.030094836 0.035476439 255 255 255
-0.041419808 0.030222794 0.035500403 255 255 255
-0.040431608 0.030552927 0.035468597 255 255 255
-0.039838925 0.030856716 0.035440076 255 255 255
-0.046216268 0.03165102 0.035459537 255 255 255
-0.045671087 0.031144464 0.035529066 255 255 255
-0.03928794 0.031280164 0.035478704 255 255 255
-0.047011632 0.032819849 0.035429351 255 255 255
-0.046715531 0.032305621 0.035506055 255 255 255
-0.047221053 0.033394076 0.035474624 255 255 255
-0.04741561 0.034406707 0.035499118 255 255 255
-0.047405042 0.035387989 0.035514649 255 255 255
-0.047160894 0.036455274 0.035475615 255 255 255
-0.046973627 0.036807872 0.035876438 255 255 255
-0.046660639 0.037443116 0.035497904 255 255 255
-0.046120685 0.038122702 0.035401437 255 255 255
-0.045518454 0.038641378 0.03551016 255 255 255
-0.045006279 0.039016362 0.035254236 255 255 255
-0.044457525 0.039291669 0.035495501 255 255 255
-0.043562986 0.03960276 0.035360083 255 255 255
-0.04240628 0.039691459 0.035476435 255 255 255
-0.041406281 0.039715361 0.035476435 255 255 255
-0.040331855 0.039604906 0.035470638 255 255 255
-0.039476007 0.03932672 0.035745855 255 255 255
-0.045085501 0.030860297 0.036302876 255 255 255
-0.044419706 0.030592717 0.03648065 255 255 255
-0.043435004 0.030309409 0.036484811 255 255 255
-0.042387284 0.030233899 0.036489379 255 255 255
-0.041424539 0.030360106 0.036454316 255 255 255
-0.040481452 0.030675657 0.036471065 255 255 255
-0.03980628 0.030935869 0.036076438 255 255 255
-0.046125524 0.031742115 0.036367171 255 255 255
-0.045547873 0.031271935 0.03652719 255 255 255
-0.040079944 0.031025674 0.036804788 255 255 255
-0.039437868 0.031399336 0.036460489 255 255 255
-0.046574391 0.032421675 0.036511473 255 255 255
-0.039016489 0.032020755 0.036857609 255 255 255
-0.038573679 0.032488968 0.036435671 255 255 255
-0.047082677 0.033513539 0.036429569 255 255 255
-0.046886519 0.033185057 0.036721475 255 255 255
-0.047230769 0.034395088 0.036490586 255 255 255
-0.047203362 0.035450764 0.036504935 255 255 255
-0.04707776 0.036254086 0.036324937 255 255 255
-0.046840876 0.036606472 0.036650307 255 255 255
-0.046406928 0.037461102 0.036497727 255 255 255
-0.045984641 0.037807871 0.036876436 255 255 255
-0.039006282 0.037938952 0.036876436 255 255 255
-0.046034988 0.038036235 0.036219526 255 255 255
-0.045474108 0.038441043 0.036484953 255 255 255
-0.044762217 0.038863797 0.036743779 255 255 255
-0.040128246 0.038854863 0.03670555 255 255 255
-0.0394012 0.038535431 0.036500838 255 255 255
-0.044361692 0.039173044 0.036420245 255 255 255
-0.043539699 0.039392542 0.036485627 255 255 255
-0.04240628 0.039482672 0.036602933 255 255 255
-0.041235272 0.039390437 0.036606636 255 255 255
-0.040491521 0.039173011 0.03643629 255 255 255
-0.039560545 0.039007872 0.036040608 255 255 255
-0.044313241 0.030821908 0.037263166 255 255 255
-0.043387108 0.030668873 0.037466399 255 255 255
-0.04239485 0.030629015 0.037490267 255 255 255
-0.041437436 0.030729827 0.037417773 255 255 255
-0.040700071 0.030843899 0.037184186 255 255 255
-0.046006281 0.03194879 0.03707644 255 255 255
-0.045388624 0.03158449 0.037415117 255 255 255
-0.044546492 0.031176001 0.037652493 255 255 255
-0.043751571 0.031007877 0.037913401 255 255 255
-0.041206282 0.031064348 0.037865344 255 255 255
-0.040380627 0.031254005 0.037560984 255 255 255
-0.039666306 0.031667221 0.037357349 255 255 255
-0.046232086 0.032539904 0.037397522 255 255 255
-0.045743849 0.032176584 0.037728362 255 255 255
-0.039272763 0.032325827 0.037586577 255 255 255
-0.038789105 0.032716285 0.037221756 255 255 255
-0.046580281 0.033404376 0.037510574 255 255 255
-0.039013211 0.033069521 0.03789622 255 255 255
-0.038618028 0.033419743 0.03748193 255 255 255
-0.047019977 0.034449499 0.037099659 255 255 255
-0.046761792 0.034395844 0.037576381 255 255 255
-0.038421854 0.034420993 0.037501354 255 255 255
-0.047015328 0.035277892 0.037085354 255 255 255
-0.0467369 0.035464276 0.037556097 255 255 255
-0.046483487 0.036446009 0.037501756 255 255 255
-0.046163369 0.037235755 0.037339702 255 255 255
-0.045692645 0.037598282 0.037572876 255 255 255
-0.039229393 0.037616316 0.037582617 255 255 255
-0.038706575 0.037222758 0.03730496 255 255 255
-0.045253754 0.038203556 0.037328418 255 255 255
-0.0445017 0.038565807 0.037546955 255 255 255
-0.043675832 0.038819417 0.037726533 255 255 255
-0.042272944 0.038899269 0.037886795 255 255 255
-0.041307706 0.038811907 0.037757937 255 255 255
-0.040387563 0.038557447 0.037531652 255 255 255
-0.039664485 0.038190216 0.037367452 255 255 255
-0.044075727 0.039034422 0.037131939 255 255 255
-0.043391403 0.03908594 0.037355069 255 255 255
-0.04240628 0.039159641 0.037422553 255 255 255
-0.041436367 0.039109275 0.037324186 255 255 255
-0.040793482 0.039014813 0.037088338 255 255 255
-0.042706281 0.030979933 0.038076438 255 255 255
-0.045121036 0.031878456 0.038076438 255 255 255
-0.044392861 0.031621192 0.038298514 255 255 255
-0.043403469 0.031447098 0.038486887 255 255 255
-0.042419866 0.031418327 0.038542617 255 255 255
-0.041461337 0.031513695 0.038437426 255 255 255
-0.040554985 0.03171837 0.038240775 255 255 255
-0.046006281 0.032972638 0.038076438 255 255 255
-0.045397151 0.032536015 0.038367659 255 255 255
-0.044519696 0.03224577 0.038765527 255 255 255
-0.043752085 0.032007873 0.038907319 255 255 255
-0.041291215 0.032099854 0.038891576 255 255 255
-0.04037492 0.03237693 0.038661238 255 255 255
-0.039639536 0.032641497 0.038289499 255 255 255
-0.046115052 0.033554949 0.038235918 255 255 255
-0.045550101 0.033352684 0.03868622 255 255 255
-0.040060937 0.033065654 0.038892489 255 255 255
-0.039417841 0.033430133 0.038510073 255 255 255
-0.038903862 0.033707872 0.038076438 255 255 255
-0.046233926 0.034432836 0.038319729 255 255 255
-0.045742482 0.034410086 0.03880737 255 255 255
-0.039301347 0.034370914 0.038693424 255 255 255
-0.038793609 0.034469411 0.038178734 255 255 255
-0.046212524 0.035390776 0.038312998 255 255 255
-0.045708306 0.035428304 0.038798191 255 255 255
-0.039202522 0.035458434 0.038686674 255 255 255
-0.038724519 0.035403948 0.038170315 255 255 255
-0.04609628 0.036242079 0.038166914 255 255 255
-0.04551753 0.036480099 0.038588762 255 255 255
-0.044844072 0.036850538 0.038899969 255 255 255
-0.04000628 0.036899202 0.038926981 255 255 255
-0.0393546 0.036514223 0.038588081 255 255 255
-0.038823776 0.036250032 0.038162056 255 255 255
-0.04526804 0.037242692 0.038326714 255 255 255
-0.044503067 0.037501827 0.038631968 255 255 255
-0.043548085 0.03773801 0.038838223 255 255 255
-0.042463422 0.03786853 0.038934913 255 255 255
-0.041354146 0.037821081 0.038879603 255 255 255
-0.040320884 0.037573788 0.038629126 255 255 255
-0.039579004 0.037259508 0.038317263 255 255 255
-0.044262882 0.038172558 0.038201835 255 255 255
-0.043400027 0.038319428 0.038419798 255 255 255
-0.042427756 0.03843626 0.038444273 255 255 255
-0.041442059 0.038341109 0.038399059 255 255 255
-0.0405325 0.038120978 0.038241688 255 255 255
-0.044181034 0.03263529 0.039162919 255 255 255
-0.043383978 0.032441091 0.039266065 255 255 255
-0.042433001 0.03240072 0.039301194 255 255 255
-0.041473281 0.032578938 0.039237283 255 255 255
-0.040798463 0.032706402 0.039079629 255 255 255
-0.045103863 0.033567969 0.039102197 255 255 255
-0.044454493 0.033406314 0.039369989 255 255 255
-0.043438289 0.033406701 0.039676342 255 255 255
-0.042423274 0.033405632 0.039739247 255 255 255
-0.041409161 0.033396803 0.039569158 255 255 255
-0.040466111 0.03345919 0.039253667 255 255 255
-0.039866403 0.033807874 0.039039135 255 255 255
-0.045196526 0.034388635 0.039202873 255 255 255
-0.044419061 0.034407035 0.039587773 255 255 255
-0.043394368 0.034397721 0.039868873 255 255 255
-0.042386286 0.034389645 0.039913107 255 255 255
-0.041412067 0.034424156 0.039746873 255 255 255
-0.040382124 0.034406297 0.039407648 255 255 255
-0.039769799 0.034467876 0.039082419 255 255 255
-0.045196861 0.035407688 0.039174482 255 255 255
-0.044441905 0.035438333 0.039541587 255 255 255
-0.0434236 0.035419516 0.039825898 255 255 255
-0.042403698 0.035420202 0.03988035 255 255 255
-0.041400284 0.035423905 0.03972337 255 255 255
-0.040393736 0.035423543 0.039428186 255 255 255
-0.039691884 0.035407867 0.039093688 255 255 255
-0.04506525 0.036146019 0.0390714 255 255 255
-0.044412773 0.036455341 0.039277732 255 255 255
-0.043434944 0.036440063 0.039566305 255 255 255
-0.042413414 0.036473647 0.039620079 255 255 255
-0.041409809 0.036430217 0.039537359 255 255 255
-0.040450752 0.036390938 0.039309163 255 255 255
-0.039810259 0.03620746 0.039073169 255 255 255
-0.044190422 0.037053064 0.039094675 255 255 255
-0.043390047 0.037270132 0.039184138 255 255 255
-0.042414606 0.03738787 0.039236434 255 255 255
-0.041455932 0.037330624 0.039209031 255 255 255
-0.040682789 0.037176084 0.039093524 255 255 255
0 0 0 1 0 0 0 1 0 0 0 1 0 0 0 0 0 330 1 0 0
