ply
format ascii 1.0
comment PCL generated
element vertex 155
property float x
property float y
property float z
property uchar red
property uchar green
property uchar blue
element camera 1
property float view_px
property float view_py
property float view_pz
property float x_axisx
property float x_axisy
property float x_axisz
property float y_axisx
property float y_axisy
property float y_axisz
property float z_axisx
property float z_axisy
property float z_axisz
property float focal
property float scalex
property float scaley
property float centerx
property float centery
property int viewportx
property int viewporty
property float k1
property float k2
end_header
0.024595866 -0.0053644539 0.036648829 255 255 255
0.02556398 -0.0053781522 0.036671821 255 255 255
0.026364744 -0.0052405293 0.036828522 255 255 255
0.0256091 -0.004790423 0.036208503 255 255 255
0.026558504 -0.0045817657 0.036533799 255 255 255
0.027155405 -0.0043674135 0.036884896 255 255 255
0.026585557 -0.0035450491 0.036374811 255 255 255
0.027245739 -0.0036244781 0.036794554 255 255 255
0.026578795 -0.002550005 0.036528185 255 255 255
0.027224997 -0.0027545595 0.036840722 255 255 255
0.026392208 -0.001762948 0.036771771 255 255 255
0.023993712 -0.0060141147 0.037876438 255 255 255
0.024702216 -0.0061312658 0.037758268 255 255 255
0.025486019 -0.0061223633 0.037755325 255 255 255
0.022942455 -0.0051620263 0.037748776 255 255 255
0.023592636 -0.0055114147 0.03750632 255 255 255
0.024472209 -0.0058153202 0.037313886 255 255 255
0.025649751 -0.0058511668 0.037300207 255 255 255
0.026620908 -0.0055751875 0.037486866 255 255 255
0.027248789 -0.0052067097 0.037712257 255 255 255
0.026984908 -0.0049810796 0.037086368 255 255 255
0.027504062 -0.0045698034 0.037464201 255 255 255
0.021793714 -0.0039921212 0.037973266 255 255 255
0.027783033 -0.0036401523 0.037421517 255 255 255
0.02805201 -0.0034921216 0.037876438 255 255 255
0.027662609 -0.0025246241 0.037387885 255 255 255
0.028030926 -0.0027921218 0.037876438 255 255 255
0.025844781 -0.0011187792 0.037125017 255 255 255
0.026693556 -0.0013635615 0.037324663 255 255 255
0.027409894 -0.0017213735 0.037621077 255 255 255
0.025516339 -0.00070474972 0.037486706 255 255 255
0.026349315 -0.00089315593 0.037682924 255 255 255
0.023797359 -0.0061527663 0.038549285 255 255 255
0.024554843 -0.0063010347 0.038454339 255 255 255
0.025574254 -0.0063084979 0.038496923 255 255 255
0.026322223 -0.0061336271 0.038538575 255 255 255
0.022776622 -0.0053941966 0.03852253 255 255 255
0.023319095 -0.0058508036 0.03841595 255 255 255
0.026782548 -0.0058758208 0.038395267 255 255 255
0.027396157 -0.005393961 0.038494401 255 255 255
0.021855883 -0.0041382625 0.038620055 255 255 255
0.022269905 -0.0046202522 0.038450036 255 255 255
0.027868776 -0.0046738456 0.038405612 255 255 255
0.028094618 -0.0042506307 0.038651437 255 255 255
0.021618189 -0.0035920215 0.038442925 255 255 255
0.022021893 -0.0039921212 0.038176436 255 255 255
0.028197484 -0.0035957342 0.038462706 255 255 255
0.021546647 -0.0026465943 0.038828965 255 255 255
0.027987668 -0.0021667175 0.038218301 255 255 255
0.028162245 -0.0026090145 0.03851014 255 255 255
0.027653813 -0.0014944097 0.038452081 255 255 255
0.028011749 -0.0019921209 0.038776435 255 255 255
0.023571627 -0.00040552061 0.03868641 255 255 255
0.024556866 -0.00028664083 0.038491491 255 255 255
0.025635177 -0.00032142206 0.038485017 255 255 255
0.026604122 -0.00059409096 0.038433135 255 255 255
0.027200926 -0.00091306062 0.038531009 255 255 255
0.023831602 -0.00615597 0.039401438 255 255 255
0.024576671 -0.0063393158 0.039501861 255 255 255
0.025584836 -0.0063537699 0.039479449 255 255 255
0.02633903 -0.0061633866 0.039503187 255 255 255
0.022684839 -0.0054121283 0.039501891 255 255 255
0.023354286 -0.0059021767 0.039577328 255 255 255
0.026828833 -0.0059040547 0.039570104 255 255 255
0.027423857 -0.0054313727 0.039418291 255 255 255
0.021981992 -0.004210786 0.039427396 255 255 255
0.022183362 -0.0046759932 0.039494075 255 255 255
0.027881131 -0.0047613182 0.039577935 255 255 255
0.028117172 -0.0042496556 0.039368745 255 255 255
0.021876929 -0.0036075055 0.039496157 255 255 255
0.028224489 -0.0035808277 0.039546143 255 255 255
0.021893628 -0.0026119289 0.039406572 255 255 255
0.02208152 -0.0022286938 0.039676435 255 255 255
0.027993711 -0.0021203696 0.039719831 255 255 255
0.028183142 -0.0025940421 0.039445311 255 255 255
0.022403501 -0.0014814315 0.039535768 255 255 255
0.027657488 -0.0014894853 0.03950043 255 255 255
0.028025419 -0.0019921209 0.039176434 255 255 255
0.022703497 -0.00087583624 0.039281964 255 255 255
0.023575976 -0.00054525316 0.039489653 255 255 255
0.024574811 -0.00017523365 0.039502185 255 255 255
0.02561765 -0.00013433167 0.039501157 255 255 255
0.026575187 -0.00046309395 0.039505128 255 255 255
0.027191678 -0.00089939282 0.03941147 255 255 255
0.023927046 -0.0060463133 0.040143102 255 255 255
0.024630941 -0.0061534345 0.040307641 255 255 255
0.025558325 -0.0061628968 0.040304817 255 255 255
0.026260378 -0.0060564545 0.040143102 255 255 255
0.022837784 -0.0052724974 0.040289659 255 255 255
0.023533272 -0.0056618671 0.040508982 255 255 255
0.024492558 -0.0059141763 0.040771272 255 255 255
0.025653811 -0.0059266719 0.040769137 255 255 255
0.026620038 -0.0056850063 0.040515184 255 255 255
0.027270727 -0.0052767354 0.040324412 255 255 255
0.022472434 -0.004599934 0.040510509 255 255 255
0.027606476 -0.0046080765 0.040529154 255 255 255
0.028014308 -0.0041921209 0.040076435 255 255 255
0.02197076 -0.0035395899 0.040144805 255 255 255
0.022204109 -0.003639474 0.040629473 255 255 255
0.027847044 -0.0036182082 0.040671218 255 255 255
0.028093778 -0.0035476771 0.040165324 255 255 255
0.021984903 -0.0028847712 0.04009879 255 255 255
0.02228795 -0.0025064382 0.040559385 255 255 255
0.027794925 -0.0025168278 0.040566921 255 255 255
0.028071333 -0.0028321217 0.040156435 255 255 255
0.022705924 -0.0015991227 0.040461414 255 255 255
0.023227105 -0.0012269893 0.040786162 255 255 255
0.026889715 -0.0012129522 0.040724576 255 255 255
0.027414052 -0.0016217014 0.040445212 255 255 255
0.02361843 -0.00076959166 0.040442064 255 255 255
0.02456552 -0.00042533729 0.04050497 255 255 255
0.025593419 -0.00042217114 0.040499728 255 255 255
0.026514016 -0.00076387083 0.040444911 255 255 255
0.027078779 -0.00099212071 0.040076435 255 255 255
0.023752742 -0.005292777 0.041192424 255 255 255
0.02456018 -0.0054392605 0.041370321 255 255 255
0.025591131 -0.0054518273 0.041378226 255 255 255
0.026392011 -0.0053017815 0.041213281 255 255 255
0.022852631 -0.0043646484 0.041185938 255 255 255
0.023559451 -0.0045978883 0.04157804 255 255 255
0.024517257 -0.004799535 0.041865911 255 255 255
0.025640065 -0.004815368 0.041866727 255 255 255
0.026574459 -0.0046235998 0.041597079 255 255 255
0.02723567 -0.0044458229 0.041184463 255 255 255
0.022703392 -0.0035469278 0.041298367 255 255 255
0.023366304 -0.0036189579 0.041803475 255 255 255
0.02676164 -0.0036045737 0.041804027 255 255 255
0.027389141 -0.0035801581 0.041306529 255 255 255
0.02275232 -0.0026376112 0.041292481 255 255 255
0.023455372 -0.0025387814 0.041786041 255 255 255
0.02599371 -0.0021921215 0.041973256 255 255 255
0.026659841 -0.0025013266 0.041748427 255 255 255
0.027334586 -0.002601437 0.04125116 255 255 255
0.022946471 -0.0018737909 0.041155953 255 255 255
0.023578972 -0.0015688248 0.0413961 255 255 255
0.0245266 -0.0015122648 0.041698962 255 255 255
0.025608379 -0.0015104759 0.041680451 255 255 255
0.026552066 -0.0016213976 0.041368484 255 255 255
0.027157238 -0.0019361094 0.041126862 255 255 255
0.023927046 -0.00096387212 0.041101534 255 255 255
0.024606602 -0.0008631486 0.041191518 255 255 255
0.025548987 -0.00088167615 0.041185193 255 255 255
0.026175933 -0.00099212071 0.041076433 255 255 255
0.024626987 -0.0043551321 0.04209169 255 255 255
0.025564419 -0.0043595368 0.042092275 255 255 255
0.023905743 -0.0035710435 0.042081498 255 255 255
0.024596671 -0.0036129733 0.042245172 255 255 255
0.025566807 -0.0036078547 0.042245772 255 255 255
0.026262134 -0.0035660316 0.042065114 255 255 255
0.023928011 -0.0027722199 0.042067207 255 255 255
0.024598997 -0.0025392585 0.042168234 255 255 255
0.025578205 -0.0025676072 0.04216044 255 255 255
0.026206804 -0.0028277084 0.042062812 255 255 255
0.024793709 -0.0019921209 0.042021696 255 255 255
0.025293712 -0.0019921209 0.042025894 255 255 255
0 0 0 1 0 0 0 1 0 0 0 1 0 0 0 0 0 155 1 0 0
