ply
format ascii 1.0
comment PCL generated
element vertex 434
property float x
property float y
property float z
property uchar red
property uchar green
property uchar blue
element camera 1
property float view_px
property float view_py
property float view_pz
property float x_axisx
property float x_axisy
property float x_axisz
property float y_axisx
property float y_axisy
property float y_axisz
property float z_axisx
property float z_axisy
property float z_axisz
property float focal
property float scalex
property float scaley
property float centerx
property float centery
property int viewportx
property int viewporty
property float k1
property float k2
end_header
54.829163 -0.36042723 -21.544296 0 0 0
55.357891 -0.55712616 -21.0243 0 0 0
55.701767 -0.54765397 -20.554085 0 0 0
48.083599 -0.51015395 -20.899111 0 0 0
50.470963 -0.31771189 -13.318663 0 0 0
51.177513 -1.0863744 -13.234621 0 0 0
51.901997 -0.28515396 -13.154295 0 0 0
52.997932 -0.55032915 -13.319883 0 0 0
53.700741 -0.54765397 -13.536114 0 0 0
55.831863 -0.36015397 -15.392609 0 0 0
50.445789 -0.28515396 -22.532467 0 0 0
51.001995 -0.47265396 -22.644218 0 0 0
51.601997 -0.585154 -22.684971 0 0 0
52.201996 -0.54765397 -22.672756 0 0 0
53.014286 -0.68237329 -22.499363 0 0 0
56.497395 -0.28515396 -17.278128 0 0 0
56.318256 -0.33202896 -16.493549 0 0 0
56.454483 -0.58515394 -18.778128 0 0 0
56.526005 -0.39765394 -18.065628 0 0 0
56.032181 -0.59143382 -19.978127 0 0 0
49.970901 -0.69453514 -22.346155 0 0 0
48.990757 -0.35285714 -21.805742 0 0 0
54.647408 -0.77265394 -14.106812 0 0 0
55.264191 -0.66433108 -14.661804 0 0 0
53.67971 -0.060153946 -22.266809 0 0 0
54.263298 -0.58515394 -21.950226 0 0 0
47.460503 -0.58515394 -19.828127 0 0 0
47.457733 -0.21015395 -19.989788 0 0 0
49.351994 -0.58515394 -13.676233 0 0 0
49.794724 -0.72051483 -13.566295 0 0 0
54.22068 -0.43515396 -13.789919 0 0 0
48.670582 -0.68323809 -21.490206 0 0 0
56.297997 -0.28515396 -19.356705 0 0 0
51.305813 -3.9894898 -20.83762 0 0 0
52.289413 -4.1848583 -20.535391 0 0 0
50.118015 -3.3168545 -21.202698 0 0 0
49.832214 -3.8731294 -20.286978 0 0 0
49.458954 -3.2892363 -20.741104 0 0 0
50.597004 -3.7351542 -21.00835 0 0 0
50.9688 -3.3509941 -21.462692 0 0 0
50.580139 -4.1295404 -20.402344 0 0 0
52.014496 -3.6451955 -21.242393 0 0 0
53.031494 -3.5552475 -21.097225 0 0 0
53.026329 -4.0386086 -20.546894 0 0 0
53.680397 -3.5153496 -20.798779 0 0 0
53.426014 -2.9443202 -21.469997 0 0 0
54.046738 -3.0043926 -21.045149 0 0 0
54.539516 -3.1801419 -20.377483 0 0 0
54.135487 -2.3405504 -21.464241 0 0 0
54.880573 -2.4550881 -20.743057 0 0 0
54.556801 -1.8048275 -21.448521 0 0 0
55.166817 -1.9315994 -20.782429 0 0 0
55.27076 -1.3478217 -20.924921 0 0 0
54.668793 -1.185154 -21.558998 0 0 0
48.137833 0.052140705 -21.046497 0 0 0
48.594372 0.26599202 -21.491388 0 0 0
47.679222 0.014846057 -20.444069 0 0 0
48.522102 1.0880327 -21.185322 0 0 0
47.800301 0.61484611 -20.553328 0 0 0
48.457302 1.9021683 -20.62834 0 0 0
48.922821 1.8309584 -21.170179 0 0 0
49.28894 2.5621228 -20.888044 0 0 0
49.694267 2.1645253 -21.489822 0 0 0
54.771648 1.2049388 -21.234655 0 0 0
54.087856 2.2016561 -21.196365 0 0 0
54.689117 1.9054558 -20.899292 0 0 0
50.178436 2.884125 -21.123974 0 0 0
50.708138 3.3103077 -20.874924 0 0 0
51.208244 3.1055446 -21.213783 0 0 0
52.513275 3.0355818 -21.203369 0 0 0
51.901993 3.6261911 -20.604277 0 0 0
53.414963 2.4698322 -21.390495 0 0 0
53.434238 3.1498642 -20.709938 0 0 0
54.030491 2.6640821 -20.819798 0 0 0
54.593353 2.5894938 -20.332796 0 0 0
52.736485 3.4979763 -20.588331 0 0 0
54.924606 0.51766056 -21.350582 0 0 0
55.447006 0.16484606 -20.858078 0 0 0
55.482727 0.89680791 -20.58247 0 0 0
55.246273 1.6339715 -20.435162 0 0 0
50.641174 -2.1596682 -13.721312 0 0 0
50.851997 -1.560154 -13.37913 0 0 0
51.158882 -2.45173 -13.723288 0 0 0
51.864494 -2.6068664 -13.707238 0 0 0
52.185196 -2.0790784 -13.465585 0 0 0
51.601997 -1.935154 -13.386589 0 0 0
51.912331 -1.2191499 -13.224357 0 0 0
50.226578 -1.4987751 -13.556065 0 0 0
50.401993 -0.88515401 -13.363586 0 0 0
52.752724 -1.7322195 -13.450514 0 0 0
53.388905 -1.4000363 -13.545222 0 0 0
50.065636 0.29585439 -13.491045 0 0 0
50.969162 0.65234607 -13.34674 0 0 0
49.877644 1.0938528 -13.781066 0 0 0
51.226997 0.14433892 -13.200945 0 0 0
52.010258 0.42222175 -13.232161 0 0 0
50.882786 1.3598011 -13.577932 0 0 0
51.676994 1.2831502 -13.457512 0 0 0
52.708244 0.83984607 -13.393997 0 0 0
52.396358 1.5271823 -13.582809 0 0 0
52.755489 0.24595784 -13.293438 0 0 0
53.41143 0.53879976 -13.501257 0 0 0
53.085976 1.1845472 -13.565813 0 0 0
50.539883 -4.2333226 -15.271984 0 0 0
50.785187 -4.136435 -15.490546 0 0 0
51.609543 -4.1066256 -15.649918 0 0 0
52.205498 -4.3540459 -15.610056 0 0 0
51.9506 -3.8830545 -14.940425 0 0 0
50.737358 -3.3519468 -14.656725 0 0 0
50.513763 -3.6980636 -14.758446 0 0 0
51.151997 -4.1201816 -15.75726 0 0 0
51.272293 -3.5471997 -14.884678 0 0 0
51.680321 -3.193862 -14.205349 0 0 0
52.501995 -3.8484838 -14.761191 0 0 0
52.651997 -4.3727341 -15.507561 0 0 0
52.958389 -4.1639862 -15.288873 0 0 0
53.352589 -3.8614707 -15.063161 0 0 0
54.128563 -3.763062 -15.476692 0 0 0
53.69059 -3.2822866 -14.681346 0 0 0
54.545174 -2.825058 -14.891674 0 0 0
54.601997 -3.2613111 -15.328127 0 0 0
54.913162 -2.4052973 -14.931312 0 0 0
55.581635 -2.2709746 -15.747372 0 0 0
54.990379 -1.5596098 -14.600459 0 0 0
55.523422 -1.7276375 -15.268276 0 0 0
55.636826 -0.92265397 -15.160582 0 0 0
48.364243 1.6258297 -15.112687 0 0 0
48.151993 1.1026058 -15.007759 0 0 0
48.440109 1.1900179 -14.712282 0 0 0
48.379879 2.3875346 -15.892686 0 0 0
49.302597 2.3970947 -14.876853 0 0 0
50.679161 -1.3227301 -22.46151 0 0 0
51.301994 -1.4548461 -22.542934 0 0 0
51.980011 -1.3703266 -22.561859 0 0 0
49.103241 2.7334313 -15.37822 0 0 0
49.790649 3.0356851 -15.167977 0 0 0
52.801994 -1.277914 -22.47183 0 0 0
50.344994 3.3353462 -15.243863 0 0 0
50.179661 2.6937175 -14.607267 0 0 0
51.222931 2.9479752 -14.501011 0 0 0
51.001995 3.5026853 -15.130896 0 0 0
51.339497 3.8017268 -15.507986 0 0 0
51.714493 3.2759235 -14.763014 0 0 0
52.196712 3.677321 -15.333731 0 0 0
52.481895 3.0272834 -14.571896 0 0 0
53.011009 3.3374891 -15.114106 0 0 0
53.663078 3.0474167 -15.130161 0 0 0
54.548634 2.6020255 -15.38639 0 0 0
54.54731 1.9768642 -14.788683 0 0 0
53.692326 2.4301815 -14.52305 0 0 0
55.650398 0.23984607 -15.177134 0 0 0
55.099991 0.21602155 -14.519188 0 0 0
55.374458 0.90148431 -14.999921 0 0 0
54.933563 0.92418897 -14.544629 0 0 0
54.662109 1.4345847 -14.526544 0 0 0
55.225529 1.4885904 -15.149529 0 0 0
55.833755 0.92564702 -15.756405 0 0 0
50.400639 0.53095859 -22.445034 0 0 0
51.076996 0.31484607 -22.623453 0 0 0
50.89323 0.96746027 -22.462326 0 0 0
55.051994 2.1354527 -15.460003 0 0 0
51.976997 0.31484607 -22.66301 0 0 0
51.601997 1.1302292 -22.485544 0 0 0
52.209286 1.1346345 -22.455765 0 0 0
52.881283 0.0093793282 -22.550526 0 0 0
53.194233 0.78552324 -22.321701 0 0 0
50.309074 -4.9574237 -17.124472 0 0 0
50.551994 -4.792542 -17.053127 0 0 0
51.001995 -4.7591 -17.428127 0 0 0
50.853905 -4.6275721 -16.663853 0 0 0
50.519161 -4.8686848 -16.378128 0 0 0
51.301994 -4.437088 -16.439854 0 0 0
51.526997 -4.7271299 -17.221443 0 0 0
52.082474 -4.7187386 -16.637314 0 0 0
52.351994 -4.8864722 -16.978127 0 0 0
52.77774 -4.857244 -16.954088 0 0 0
53.542645 -4.7025414 -17.446877 0 0 0
53.416809 -4.599082 -16.42297 0 0 0
53.991821 -4.4002376 -16.759703 0 0 0
54.573387 -4.0805464 -17.128128 0 0 0
54.89296 -3.6372533 -16.439159 0 0 0
55.17411 -3.5602722 -17.709377 0 0 0
55.275993 -3.4166532 -16.978127 0 0 0
55.611496 -2.7746403 -16.406372 0 0 0
55.61573 -3.0870485 -17.503128 0 0 0
55.929451 -2.5155668 -17.122149 0 0 0
56.234009 -1.7708972 -16.978127 0 0 0
55.949776 -2.0851541 -16.371147 0 0 0
56.320869 -1.035154 -16.650047 0 0 0
56.460537 -1.128904 -17.521877 0 0 0
47.262749 1.3240414 -17.203129 0 0 0
47.401043 1.3648461 -16.678127 0 0 0
47.680004 1.818547 -16.474859 0 0 0
47.431961 1.7943361 -17.621172 0 0 0
47.950897 2.4309573 -16.90667 0 0 0
48.347061 3.0084805 -17.578129 0 0 0
48.422783 2.8936915 -16.678127 0 0 0
49.138218 3.410512 -16.543558 0 0 0
49.148712 3.6433158 -17.43615 0 0 0
49.710655 3.8689713 -16.981308 0 0 0
50.026997 3.7371202 -16.124977 0 0 0
50.524567 4.136261 -16.698149 0 0 0
51.277542 4.3459334 -16.939548 0 0 0
50.997467 4.1335468 -16.311363 0 0 0
52.099838 4.371027 -17.01432 0 0 0
52.801666 4.2400942 -16.964756 0 0 0
53.536373 4.0616236 -17.346079 0 0 0
53.324451 3.8610504 -16.242226 0 0 0
54.196945 3.6313274 -16.899616 0 0 0
56.402336 0.42734608 -17.165627 0 0 0
56.232391 0.36137745 -16.386845 0 0 0
56.178627 1.0907634 -16.83889 0 0 0
55.875534 1.5782813 -16.435808 0 0 0
55.981934 1.7845993 -17.278128 0 0 0
55.538376 2.4919407 -17.247276 0 0 0
55.445503 2.4189787 -16.620163 0 0 0
54.924271 3.0950682 -16.94791 0 0 0
49.64222 -4.6211343 -18.619602 0 0 0
49.651993 -4.426353 -18.928127 0 0 0
50.38382 -4.7027531 -18.870081 0 0 0
50.013367 -4.5850163 -18.807529 0 0 0
49.951996 -4.713676 -18.328127 0 0 0
51.226997 -4.8285804 -19.078129 0 0 0
50.963017 -4.8646212 -18.481335 0 0 0
51.308342 -4.895452 -18.099361 0 0 0
51.901993 -4.9958901 -18.328127 0 0 0
51.901993 -4.9428911 -18.836979 0 0 0
52.67168 -4.9431691 -18.065393 0 0 0
52.276993 -4.7367272 -19.407906 0 0 0
53.246964 -4.7436399 -18.493046 0 0 0
53.862709 -4.5152192 -18.298409 0 0 0
53.820637 -4.319499 -19.204777 0 0 0
54.590187 -3.893357 -18.985508 0 0 0
54.402805 -4.218112 -17.840626 0 0 0
55.191784 -3.4020171 -18.788939 0 0 0
55.838943 -2.6388271 -18.470207 0 0 0
55.914375 -2.1081314 -19.300329 0 0 0
56.232159 -1.7056005 -18.742741 0 0 0
56.23666 -1.9297624 -17.934378 0 0 0
56.170418 -1.2933254 -19.365311 0 0 0
56.474556 -1.1101539 -18.253128 0 0 0
47.098824 0.61484611 -18.703127 0 0 0
47.319771 1.1374977 -19.185637 0 0 0
47.158012 1.064846 -18.478127 0 0 0
47.424942 1.7050147 -18.583111 0 0 0
47.785057 2.1071057 -19.167667 0 0 0
47.809891 2.3850682 -18.403128 0 0 0
48.294548 2.6269641 -19.406658 0 0 0
48.34322 2.9924655 -18.478127 0 0 0
48.881905 3.3302212 -19.064657 0 0 0
48.930336 3.5130575 -18.215628 0 0 0
49.48632 3.8461881 -18.41938 0 0 0
50.479012 4.2330685 -18.626545 0 0 0
51.755043 4.3239822 -19.081545 0 0 0
52.501995 4.2618794 -19.078129 0 0 0
52.138977 4.424221 -18.371529 0 0 0
53.091324 4.1938791 -18.703449 0 0 0
53.836815 3.7750986 -19.155668 0 0 0
54.349018 3.6260974 -18.499725 0 0 0
53.694283 4.0086384 -18.389095 0 0 0
56.384315 0.37109607 -18.740627 0 0 0
56.462139 0.38984609 -17.953127 0 0 0
56.166176 1.0694294 -18.953564 0 0 0
56.250004 1.164075 -18.328127 0 0 0
55.880604 1.9646635 -18.19817 0 0 0
55.69886 1.8124419 -19.345097 0 0 0
55.229431 2.7174721 -18.927858 0 0 0
54.842133 3.176908 -18.766113 0 0 0
51.339497 4.4413896 -18.328127 0 0 0
48.451996 -3.169358 -20.1408 0 0 0
48.451996 -2.8351541 -20.24645 0 0 0
48.786671 -3.4123831 -20.09024 0 0 0
49.051994 -3.490674 -20.202194 0 0 0
49.178993 -2.8070369 -20.900675 0 0 0
48.608284 -2.6476541 -20.405987 0 0 0
48.751995 -3.135154 -20.279629 0 0 0
48.151993 -2.0851541 -20.300507 0 0 0
47.851994 -1.635154 -20.159958 0 0 0
48.023392 -1.4620653 -20.294029 0 0 0
48.696541 -1.8726861 -20.847252 0 0 0
47.795868 -0.88343287 -20.228573 0 0 0
51.376999 -4.4049025 -20.238968 0 0 0
52.932236 -4.4343781 -19.830574 0 0 0
53.476994 -4.1032753 -20.090626 0 0 0
54.223488 -3.7997441 -19.863102 0 0 0
55.19838 -2.6833513 -20.13479 0 0 0
55.662636 -1.8235497 -20.112356 0 0 0
55.698452 -1.035154 -20.498281 0 0 0
55.95607 -1.185154 -19.981161 0 0 0
47.540047 0.84819186 -19.988117 0 0 0
47.876678 1.3058642 -20.304798 0 0 0
48.014236 1.8999655 -19.992828 0 0 0
48.597176 2.4187715 -20.283375 0 0 0
49.253651 2.9919629 -20.353968 0 0 0
48.893612 3.03965 -19.801016 0 0 0
50.059357 3.5903373 -20.107431 0 0 0
50.698219 3.7342765 -20.261608 0 0 0
51.339497 3.8303459 -20.269909 0 0 0
52.12466 4.0765743 -19.756386 0 0 0
53.815807 3.2884741 -20.191856 0 0 0
52.736916 3.8861594 -19.933622 0 0 0
55.999672 0.19598973 -19.968439 0 0 0
55.812294 1.0536045 -19.912825 0 0 0
55.19429 2.2754889 -19.855335 0 0 0
50.403149 -3.435154 -14.428127 0 0 0
50.551994 -3.2981117 -14.505677 0 0 0
50.974213 -2.9738998 -14.275129 0 0 0
50.483318 -2.7498899 -14.097687 0 0 0
52.201996 -3.2540669 -14.166584 0 0 0
52.801712 -3.2532802 -14.251986 0 0 0
53.723 -2.7565184 -14.277569 0 0 0
49.525208 -1.2994339 -22.033628 0 0 0
49.949394 -1.7735023 -22.095818 0 0 0
54.309792 -2.3316305 -14.377851 0 0 0
54.236633 -1.4705749 -13.969311 0 0 0
51.130753 -2.7536523 -21.952 0 0 0
51.901993 -3.0393221 -21.803616 0 0 0
52.464493 -2.6654558 -21.977337 0 0 0
50.408615 -2.3079367 -22.039249 0 0 0
51.235691 -2.011585 -22.348328 0 0 0
51.789494 -2.1353936 -22.316147 0 0 0
48.451996 0.47318828 -14.428127 0 0 0
48.451996 0.76484609 -14.550886 0 0 0
48.71772 0.61484611 -14.29497 0 0 0
48.751995 0.20175609 -14.109621 0 0 0
49.048386 0.058895886 -13.92415 0 0 0
48.93457 1.0325167 -14.258987 0 0 0
49.534386 1.825881 -14.308779 0 0 0
52.515633 -2.0396624 -22.290636 0 0 0
52.96629 -2.6962287 -21.855169 0 0 0
53.234901 -1.9406739 -22.110962 0 0 0
53.900574 -1.8023082 -21.883799 0 0 0
53.789467 -1.0476164 -22.147409 0 0 0
54.215237 0.80307257 -13.946283 0 0 0
53.788551 1.8012421 -14.141356 0 0 0
50.445263 2.0272 -14.014103 0 0 0
49.820129 0.24855417 -22.273579 0 0 0
51.182861 2.2172451 -13.979402 0 0 0
49.09388 0.48587316 -21.824627 0 0 0
49.801258 1.0105379 -22.094818 0 0 0
51.864712 2.6584034 -14.194818 0 0 0
52.878586 2.1117744 -13.97052 0 0 0
53.118729 2.6330614 -14.407476 0 0 0
54.385689 0.20234606 -13.928421 0 0 0
50.449287 1.525139 -22.162495 0 0 0
51.128601 1.6699865 -22.23905 0 0 0
49.552582 1.5838143 -21.748646 0 0 0
50.589157 2.2268445 -21.816147 0 0 0
51.928101 2.0523248 -22.072895 0 0 0
54.294163 0.30677301 -21.891636 0 0 0
52.66201 1.501837 -22.245445 0 0 0
53.738716 1.189111 -21.979965 0 0 0
52.650841 2.2821374 -21.813805 0 0 0
53.110954 1.8326766 -21.96279 0 0 0
51.232876 2.4423816 -21.80632 0 0 0
50.78336 -4.5307832 -16.149242 0 0 0
50.581425 -4.6778688 -15.928127 0 0 0
52.351994 -4.6190929 -16.039101 0 0 0
52.801994 -4.6606622 -16.100756 0 0 0
53.251995 -4.4868641 -15.928127 0 0 0
53.865509 -4.3430829 -16.189377 0 0 0
53.706604 -4.1994185 -15.764569 0 0 0
54.417381 -3.8299351 -15.956068 0 0 0
55.159645 -2.985678 -15.750571 0 0 0
55.965927 -1.185154 -15.792022 0 0 0
47.838516 1.5315628 -15.773374 0 0 0
47.551994 1.3877267 -16.228127 0 0 0
48.881546 3.0363891 -16.102165 0 0 0
49.507061 3.2953663 -15.786728 0 0 0
50.646343 3.8226714 -15.77486 0 0 0
51.826996 4.1184936 -16.094624 0 0 0
54.607471 3.0208888 -16.069374 0 0 0
53.550797 3.5383611 -15.769166 0 0 0
52.515297 4.0453453 -16.094652 0 0 0
54.135193 3.2706385 -15.859718 0 0 0
56.000443 0.30676723 -15.792443 0 0 0
55.595306 1.5752535 -15.790158 0 0 0
55.206215 2.4166625 -16.072163 0 0 0
50.0331 -4.9194956 -17.86974 0 0 0
50.251995 -4.8271031 -17.878128 0 0 0
50.701996 -4.8210917 -17.878128 0 0 0
51.958344 -4.9549913 -17.568192 0 0 0
52.351994 -5.0218143 -17.728127 0 0 0
55.895641 -2.7025023 -17.728127 0 0 0
47.12711 1.064846 -17.878128 0 0 0
47.797844 2.3897471 -17.578127 0 0 0
50.429276 4.2571998 -17.655918 0 0 0
53.038383 4.2816391 -17.878128 0 0 0
54.484409 3.5676091 -17.653128 0 0 0
56.260147 1.1723921 -17.653128 0 0 0
55.460526 2.6622148 -17.878128 0 0 0
55.028862 3.1429586 -17.878128 0 0 0
51.301994 4.449131 -17.578127 0 0 0
52.126991 4.4458179 -17.690628 0 0 0
49.254711 -4.0351543 -19.528128 0 0 0
49.928059 -4.2978024 -19.686901 0 0 0
49.036781 -3.741334 -19.837158 0 0 0
50.52108 -4.5514326 -19.53628 0 0 0
51.526993 -4.7413096 -19.51726 0 0 0
54.930199 -3.311564 -19.660507 0 0 0
55.539238 -2.7010117 -19.445654 0 0 0
47.260612 0.30510488 -19.53368 0 0 0
47.576775 1.5335406 -19.513355 0 0 0
49.458157 3.4685764 -19.748741 0 0 0
49.586609 3.7158792 -19.305061 0 0 0
50.5616 4.0196495 -19.568104 0 0 0
51.206673 4.2003598 -19.415833 0 0 0
54.285526 3.3833861 -19.45813 0 0 0
53.23661 3.9851072 -19.346264 0 0 0
56.234512 0.31484607 -19.362064 0 0 0
54.773979 2.885689 -19.655521 0 0 0
49.651993 -1.185154 -13.587758 0 0 0
50.251995 -2.8351541 -14.027475 0 0 0
52.501995 -2.6614685 -13.784679 0 0 0
50.149509 -2.5351541 -13.828127 0 0 0
50.251995 -2.4014091 -13.862917 0 0 0
49.951996 -1.935154 -13.671844 0 0 0
50.251995 -1.935154 -13.7 0 0 0
49.951996 -1.485154 -13.590515 0 0 0
53.256241 -2.2007766 -13.770497 0 0 0
49.647961 -2.8351541 -21.328127 0 0 0
49.53212 -2.2377334 -21.660259 0 0 0
48.959621 -1.4631882 -21.475134 0 0 0
50.308708 -2.8607855 -21.674301 0 0 0
49.468994 0.18270785 -13.742176 0 0 0
52.718998 -3.1205759 -21.612982 0 0 0
52.201996 2.0757608 -13.811771 0 0 0
53.713242 1.1824995 -13.803873 0 0 0
53.892422 1.7623694 -21.626497 0 0 0
51.826996 2.6924586 -21.637653 0 0 0
52.758743 3.7670054 -15.624681 0 0 0
49.351994 -4.2954483 -19.168388 0 0 0
49.67305 -4.3351541 -19.228128 0 0 0
47.158436 0.16484606 -19.228128 0 0 0
0 0 0 1 0 0 0 1 0 0 0 1 0 0 0 0 0 434 1 0 0
