ply
format ascii 1.0
comment PCL generated
element vertex 417
property float x
property float y
property float z
property uchar red
property uchar green
property uchar blue
element camera 1
property float view_px
property float view_py
property float view_pz
property float x_axisx
property float x_axisy
property float x_axisz
property float y_axisx
property float y_axisy
property float y_axisz
property float z_axisx
property float z_axisy
property float z_axisz
property float focal
property float scalex
property float scaley
property float centerx
property float centery
property int viewportx
property int viewporty
property float k1
property float k2
end_header
4.8960671 37.650581 -51.042873 0 0 0
4.9724488 37.985359 -49.97813 0 0 0
1.5335901 41.006577 -50.614815 0 0 0
1.8769927 40.97414 -49.80938 0 0 0
1.2019928 36.164848 -54.482521 0 0 0
1.6894927 36.415817 -54.380753 0 0 0
1.9151158 36.685646 -54.332855 0 0 0
2.1281004 37.380989 -54.135666 0 0 0
2.0892034 32.58847 -47.558006 0 0 0
1.5854261 32.897041 -46.71244 0 0 0
1.8011823 33.348843 -46.359032 0 0 0
4.2791033 38.042717 -47.358425 0 0 0
3.5825942 37.841873 -46.392601 0 0 0
4.4268103 37.938999 -51.955841 0 0 0
1.2875473 40.104004 -46.845207 0 0 0
1.8218226 40.242214 -52.299294 0 0 0
1.9041104 34.85593 -45.422756 0 0 0
1.2868085 35.41135 -45.094124 0 0 0
1.7941622 35.795647 -45.14473 0 0 0
1.7525346 37.022293 -45.140587 0 0 0
-0.59332645 37.877869 -45.283653 0 0 0
0.23158048 38.315495 -45.335419 0 0 0
0.80063999 37.621647 -45.098152 0 0 0
1.5019928 37.847336 -45.261642 0 0 0
-4.0773172 37.894718 -50.27813 0 0 0
-4.0551696 38.071976 -49.678131 0 0 0
-1.6410847 37.805424 -53.875496 0 0 0
-0.94650578 38.134968 -54.040054 0 0 0
-0.79404235 37.60463 -54.269699 0 0 0
-0.14800727 37.394222 -54.435715 0 0 0
0.5644927 37.879467 -54.335079 0 0 0
1.4232513 37.881798 -54.216568 0 0 0
2.105696 38.262688 -53.858791 0 0 0
1.2712312 38.545998 -53.983509 0 0 0
1.6945938 39.047745 -53.559464 0 0 0
-4.0532746 37.627796 -48.665627 0 0 0
-3.7258766 37.875744 -47.920322 0 0 0
1.8721764 40.668045 -48.163986 0 0 0
-2.9155259 33.212959 -51.074196 0 0 0
-2.9285204 33.492825 -51.596077 0 0 0
-3.5766044 33.99456 -50.865517 0 0 0
-3.9526293 34.84523 -51.052738 0 0 0
-4.0259228 35.362232 -51.316933 0 0 0
-4.071104 36.014847 -51.45026 0 0 0
-4.0417137 36.68644 -51.471214 0 0 0
-3.8408873 37.691917 -51.466515 0 0 0
-3.4659219 38.24876 -51.810284 0 0 0
-3.8961124 38.063057 -50.89576 0 0 0
-3.5133133 38.703613 -51.188381 0 0 0
-2.9529953 39.418427 -51.260094 0 0 0
-2.4067721 39.944122 -51.259228 0 0 0
-1.8942223 40.335274 -51.178131 0 0 0
-1.1706307 40.400513 -51.822456 0 0 0
-0.89800727 40.810024 -51.10313 0 0 0
0.0048470497 41.029377 -50.924805 0 0 0
0.93744791 41.036209 -50.943199 0 0 0
1.8784449 40.668083 -51.490334 0 0 0
3.000849 37.825272 -53.57571 0 0 0
1.8019928 32.030266 -48.376381 0 0 0
1.8279839 32.308167 -48.039375 0 0 0
4.7372236 38.091984 -48.304474 0 0 0
4.7058234 34.364849 -51.178131 0 0 0
4.679884 34.758598 -51.261139 0 0 0
4.8701382 35.730724 -51.251724 0 0 0
4.975565 36.410614 -51.253128 0 0 0
4.9027252 36.904552 -51.474136 0 0 0
2.6051087 40.377811 -51.462021 0 0 0
3.2749562 39.746433 -51.747955 0 0 0
4.0737553 39.303558 -51.044579 0 0 0
3.1377943 40.183701 -51.089104 0 0 0
4.6195345 38.495319 -50.846256 0 0 0
1.564832 34.121796 -45.715988 0 0 0
-3.0049574 37.558792 -46.635971 0 0 0
-2.3589189 37.671272 -46.060612 0 0 0
-1.9289776 38.252846 -46.022263 0 0 0
1.3979728 38.942642 -45.78199 0 0 0
1.4053255 39.639404 -46.356201 0 0 0
-2.6996944 38.118378 -52.980377 0 0 0
-2.1096935 38.461067 -53.269768 0 0 0
2.2053516 39.597618 -52.853203 0 0 0
-3.9459963 38.151295 -48.946365 0 0 0
1.9918909 40.891586 -49.066383 0 0 0
3.6200891 38.356087 -52.784973 0 0 0
2.9932275 38.136955 -46.044735 0 0 0
4.9651661 38.080727 -49.22813 0 0 0
-3.3230116 38.199516 -47.388248 0 0 0
2.0253782 40.360603 -47.585747 0 0 0
-3.1729872 37.747131 -52.664581 0 0 0
1.1565535 39.907825 -52.940956 0 0 0
4.2319431 37.552349 -52.505608 0 0 0
-1.2923434 37.901505 -45.528671 0 0 0
1.6519928 31.064848 -48.74892 0 0 0
1.6519928 31.364847 -48.790432 0 0 0
1.8769927 31.681896 -48.685684 0 0 0
2.2076988 37.80455 -45.482674 0 0 0
3.9606118 39.676472 -50.27813 0 0 0
3.3119984 40.216286 -50.441185 0 0 0
3.3883319 40.212318 -49.793919 0 0 0
3.735785 39.756508 -50.907608 0 0 0
4.6953402 38.729542 -49.69688 0 0 0
4.4458966 39.002533 -50.509899 0 0 0
4.3863168 39.211403 -49.978127 0 0 0
2.4492364 40.651138 -50.803886 0 0 0
2.657443 40.672501 -49.978127 0 0 0
2.1255903 36.097687 -54.328129 0 0 0
2.2581282 33.004288 -46.965248 0 0 0
2.9259081 33.313992 -47.196442 0 0 0
2.1865721 33.945686 -46.123634 0 0 0
2.8731112 34.198845 -46.46257 0 0 0
3.5152092 35.101681 -46.496468 0 0 0
3.9058828 34.335213 -47.477165 0 0 0
4.1385312 35.370827 -47.151009 0 0 0
3.5734692 35.864849 -46.150532 0 0 0
4.0940495 36.352348 -46.677155 0 0 0
3.8872058 37.06485 -46.471508 0 0 0
4.2061739 37.52742 -46.970764 0 0 0
4.4499435 36.318451 -47.265854 0 0 0
4.390101 37.064846 -47.068047 0 0 0
4.2222171 34.964848 -52.22813 0 0 0
4.3973351 34.964848 -51.980072 0 0 0
4.0718374 35.414848 -52.652977 0 0 0
4.5162544 35.722893 -52.158607 0 0 0
4.6029868 35.171768 -51.770905 0 0 0
4.626379 36.31485 -52.11306 0 0 0
4.1474729 36.959778 -52.772743 0 0 0
4.6433134 37.015709 -52.033859 0 0 0
2.8745742 38.821716 -46.389839 0 0 0
3.5664983 38.579647 -46.831566 0 0 0
3.0187938 39.324905 -46.955444 0 0 0
3.6225507 39.246651 -47.548462 0 0 0
2.1058917 39.716454 -46.737846 0 0 0
4.0778108 38.495613 -52.114059 0 0 0
3.0646787 39.332108 -52.510689 0 0 0
3.9026294 38.997032 -51.891644 0 0 0
2.4749284 40.028271 -52.183685 0 0 0
-0.9035933 34.806583 -45.413578 0 0 0
-1.1840006 35.79084 -45.256615 0 0 0
-0.5605073 35.642273 -45.096943 0 0 0
-0.29047173 34.737541 -45.300377 0 0 0
0.37699273 34.760746 -45.231964 0 0 0
0.37699273 35.407967 -45.024582 0 0 0
1.1934941 34.776321 -45.274593 0 0 0
-1.4582661 36.31485 -45.314842 0 0 0
-0.82686895 36.50235 -45.096581 0 0 0
-1.6319474 37.104412 -45.470253 0 0 0
-1.0318478 37.214851 -45.236603 0 0 0
0.076992735 36.014847 -44.950802 0 0 0
0.086367726 36.652348 -44.939842 0 0 0
0.9019928 36.014847 -44.940269 0 0 0
0.97699279 36.614845 -44.936394 0 0 0
-0.1164913 37.349815 -45.059036 0 0 0
0.91639966 38.645378 -45.514065 0 0 0
-1.6438067 31.972256 -50.133537 0 0 0
-1.4345982 31.986593 -49.753128 0 0 0
-0.99811673 31.961048 -49.277756 0 0 0
-1.057964 31.664846 -49.828129 0 0 0
-0.73803294 31.680065 -49.533775 0 0 0
-2.1680024 32.305809 -50.353127 0 0 0
-2.2201071 32.381367 -49.60313 0 0 0
-1.9480073 32.187607 -50.128128 0 0 0
-2.7562015 32.807854 -49.978127 0 0 0
-2.9091949 33.047138 -49.134377 0 0 0
-1.7980074 32.217152 -49.235645 0 0 0
-0.22758821 31.364847 -49.444839 0 0 0
-3.4595723 33.609192 -49.97813 0 0 0
-3.8451693 34.201542 -49.603127 0 0 0
-3.8312972 34.204651 -50.271282 0 0 0
-4.106091 34.81485 -49.678131 0 0 0
-4.092752 34.81945 -50.290169 0 0 0
-4.210475 35.677345 -50.784378 0 0 0
-4.2810712 35.6586 -49.762505 0 0 0
-4.0976152 35.080353 -49.038612 0 0 0
-4.3454857 36.593002 -49.681458 0 0 0
-4.2691517 36.464848 -50.578129 0 0 0
-4.2401295 37.214848 -50.353127 0 0 0
-4.2598829 37.289848 -49.678131 0 0 0
-3.677176 38.754898 -50.428131 0 0 0
-3.7416818 38.739212 -49.790627 0 0 0
-3.2496941 39.423096 -49.932411 0 0 0
-2.4250474 40.239685 -49.934418 0 0 0
-1.7697932 40.65749 -49.753128 0 0 0
-2.1241779 40.390541 -49.105537 0 0 0
-1.0050561 40.957973 -50.165901 0 0 0
-1.1001093 40.895805 -49.193897 0 0 0
-0.7480073 41.067589 -49.678131 0 0 0
-0.035507269 41.162285 -50.203125 0 0 0
-0.29800728 41.135063 -49.378128 0 0 0
0.82699275 41.185539 -50.015629 0 0 0
0.30199274 41.212997 -49.52813 0 0 0
1.0519928 41.145332 -49.303131 0 0 0
-2.0980072 35.25111 -53.663536 0 0 0
-2.0613952 35.695084 -53.828575 0 0 0
-1.8945098 34.964848 -53.688278 0 0 0
-1.4980073 35.264847 -53.959221 0 0 0
-1.1397225 35.713032 -54.194054 0 0 0
-2.4190497 36.31485 -53.661327 0 0 0
-1.7716252 36.389847 -54.061821 0 0 0
-2.2110109 37.06485 -53.732891 0 0 0
-0.98375714 36.31485 -54.368073 0 0 0
-0.94011497 36.90551 -54.366135 0 0 0
-1.3480073 37.214848 -54.191349 0 0 0
-1.4131484 38.666107 -53.56601 0 0 0
-0.4850387 38.563759 -53.953228 0 0 0
0.37699273 38.599388 -54.046341 0 0 0
-0.10092025 39.181412 -53.62006 0 0 0
0.74394476 39.23159 -53.611774 0 0 0
-2.8604364 33.144119 -48.498489 0 0 0
-2.3731549 33.059082 -47.838943 0 0 0
-2.3528974 32.770775 -48.54744 0 0 0
-1.7640342 32.546562 -48.328129 0 0 0
-1.9480073 32.682999 -48.02813 0 0 0
-1.4262438 32.584957 -47.724045 0 0 0
-1.2672591 32.255527 -48.649334 0 0 0
-0.48550725 32.421295 -47.65313 0 0 0
0.12509197 32.191963 -48.255333 0 0 0
-3.2683172 33.6138 -48.502922 0 0 0
-2.8370578 33.693848 -47.574017 0 0 0
-3.5966325 34.586716 -47.944344 0 0 0
-3.1585376 34.477272 -47.261497 0 0 0
-4.0268092 35.448769 -48.364937 0 0 0
-3.7274737 35.452347 -47.591896 0 0 0
-4.0812197 36.539848 -48.196297 0 0 0
-3.8208494 36.352348 -47.586758 0 0 0
-4.0207253 37.207275 -48.204536 0 0 0
-3.6425104 37.329796 -47.439625 0 0 0
-3.6779697 38.414848 -48.333351 0 0 0
-3.2492366 38.726654 -47.763367 0 0 0
-3.3009081 39.078426 -48.383789 0 0 0
-2.8339827 39.032242 -47.451202 0 0 0
-2.730123 39.643883 -48.192909 0 0 0
-2.3976829 39.552185 -47.517303 0 0 0
-2.2560253 40.070999 -48.216515 0 0 0
-1.7695308 40.201538 -47.853836 0 0 0
-1.5095643 40.600182 -48.5158 0 0 0
-1.051506 40.675323 -48.19352 0 0 0
-0.45237631 40.979851 -48.663834 0 0 0
-1.1670296 40.257755 -47.433884 0 0 0
-0.19820291 40.698456 -47.774174 0 0 0
0.02979029 40.973774 -48.339844 0 0 0
0.7563951 40.913292 -48.192963 0 0 0
1.2002413 40.95435 -48.491516 0 0 0
1.0544747 40.532837 -47.444962 0 0 0
-3.0019374 34.084026 -52.23032 0 0 0
-3.4804931 34.369041 -51.693092 0 0 0
-3.5822883 34.944588 -52.018066 0 0 0
-3.814857 35.902348 -52.014805 0 0 0
-3.6433454 36.577347 -52.32505 0 0 0
-3.5480492 37.289219 -52.309795 0 0 0
-3.0151224 38.685909 -52.130478 0 0 0
-2.3980074 39.606781 -51.915085 0 0 0
-1.6877036 39.902912 -52.225971 0 0 0
-0.51787341 40.60791 -51.850033 0 0 0
-0.10388714 40.417099 -52.316124 0 0 0
0.22699274 40.828465 -51.628128 0 0 0
0.63888669 40.471077 -52.303253 0 0 0
1.1269928 40.762787 -51.691246 0 0 0
2.6529379 35.40834 -45.549706 0 0 0
2.4008789 36.014847 -45.332336 0 0 0
2.4457955 36.727348 -45.351925 0 0 0
4.3027353 33.164848 -49.659096 0 0 0
2.4019928 36.164848 -54.184525 0 0 0
2.7647169 36.352348 -54.0019 0 0 0
3.0058084 37.177345 -53.739296 0 0 0
3.1623304 36.389847 -53.735931 0 0 0
4.5504713 33.614845 -50.128128 0 0 0
4.2783017 33.536018 -49.473633 0 0 0
4.6160717 34.212742 -49.821068 0 0 0
4.6518426 34.260265 -50.353127 0 0 0
4.5545378 34.323936 -49.124092 0 0 0
4.821444 34.967415 -50.416702 0 0 0
4.9188995 35.096603 -49.678131 0 0 0
5.0771213 35.789848 -50.109379 0 0 0
5.1433997 36.446098 -50.071877 0 0 0
5.1172104 36.577347 -49.190628 0 0 0
5.1228752 37.327347 -49.828129 0 0 0
3.9503548 39.666039 -49.254101 0 0 0
2.7854257 40.546585 -49.144012 0 0 0
3.0175195 32.577774 -48.348602 0 0 0
2.9211681 32.824596 -47.890671 0 0 0
3.4592094 33.045048 -48.250782 0 0 0
3.2070312 33.212818 -47.556831 0 0 0
3.9175198 33.598877 -48.243309 0 0 0
3.7392426 33.656452 -47.78915 0 0 0
4.3829093 34.333862 -48.311378 0 0 0
4.4722419 34.85257 -48.012398 0 0 0
4.709311 35.727013 -48.054066 0 0 0
4.9896979 36.827385 -48.488403 0 0 0
4.6919479 36.896095 -47.657955 0 0 0
4.871635 37.53968 -48.265888 0 0 0
4.5903044 37.50502 -47.564758 0 0 0
4.5749016 34.664848 -51.628128 0 0 0
3.9173672 39.33186 -48.15451 0 0 0
2.8162971 40.301785 -48.316013 0 0 0
2.8548956 39.906975 -47.577744 0 0 0
3.4822028 39.79834 -48.178131 0 0 0
4.6418543 38.517601 -48.55368 0 0 0
4.2533264 38.66198 -47.864094 0 0 0
-0.91309983 33.176941 -46.536751 0 0 0
0.0019927323 32.850723 -46.625206 0 0 0
0.0019927323 33.473461 -46.050133 0 0 0
0.9019928 32.882187 -46.541054 0 0 0
1.1269928 33.350807 -46.169762 0 0 0
-1.8167744 33.461639 -46.777367 0 0 0
-2.0791218 34.363541 -46.212219 0 0 0
-2.7176251 34.838058 -46.510136 0 0 0
-2.3980074 34.071884 -46.672924 0 0 0
-1.5786147 33.871227 -46.22863 0 0 0
-0.90188396 33.628212 -46.112652 0 0 0
-1.2456467 34.320782 -45.78801 0 0 0
-1.8568856 35.046429 -45.751251 0 0 0
-3.3152869 35.398804 -46.943348 0 0 0
-2.7518427 35.789848 -46.210896 0 0 0
-2.1352625 35.650482 -45.753658 0 0 0
-3.2926304 36.014847 -46.767006 0 0 0
-2.646801 36.352348 -46.072174 0 0 0
-3.2861776 36.727345 -46.770313 0 0 0
-2.5464613 37.027348 -46.047272 0 0 0
-2.7167463 38.292976 -46.665981 0 0 0
-2.0890954 38.946011 -46.58905 0 0 0
-1.2314931 39.355652 -46.382717 0 0 0
-1.129791 38.612251 -45.790016 0 0 0
-0.34509331 39.089581 -45.857891 0 0 0
-0.2860648 39.564507 -46.238136 0 0 0
-0.82109535 39.875416 -46.71891 0 0 0
0.4047361 39.102909 -45.78138 0 0 0
0.67699277 39.868992 -46.462982 0 0 0
-2.4563103 34.364849 -53.040047 0 0 0
-2.6038675 35.134949 -53.289352 0 0 0
-2.2106555 34.729294 -53.410316 0 0 0
-2.7589579 35.93985 -53.358509 0 0 0
-3.1857822 36.089851 -52.943115 0 0 0
-3.0146627 37.098732 -53.046074 0 0 0
-2.4599051 37.514847 -53.461021 0 0 0
-1.7177711 39.335838 -52.846371 0 0 0
-0.87364227 39.181015 -53.440853 0 0 0
-0.67073274 39.75663 -52.968826 0 0 0
0.22768694 39.916107 -52.996231 0 0 0
0.98115808 31.431395 -48.979916 0 0 0
0.20279798 31.665976 -49.108994 0 0 0
-0.0071856007 31.970009 -48.763306 0 0 0
-3.4355841 33.617943 -49.078129 0 0 0
-3.7321024 34.228416 -48.77813 0 0 0
-4.2862267 36.258598 -49.040627 0 0 0
-4.2297506 36.914848 -48.853127 0 0 0
-3.5734599 38.918217 -49.059155 0 0 0
-3.0187147 39.639408 -49.003189 0 0 0
-2.5600219 40.076054 -48.995625 0 0 0
-2.3151555 32.434067 -50.891933 0 0 0
-2.7268171 32.83556 -50.503128 0 0 0
-2.5480075 32.822403 -51.164295 0 0 0
0.52699274 41.131378 -48.96563 0 0 0
-4.1024518 37.214848 -51.055729 0 0 0
-3.0095029 39.63031 -50.567451 0 0 0
-2.3061514 40.240257 -50.559952 0 0 0
-1.4931493 40.65715 -50.806358 0 0 0
3.514534 35.864849 -53.503883 0 0 0
3.6399193 36.389847 -53.305672 0 0 0
3.9216106 35.93985 -53.001213 0 0 0
3.6613219 37.447544 -53.182014 0 0 0
3.0215001 35.18372 -45.906631 0 0 0
3.2260003 36.352348 -45.813164 0 0 0
3.7265196 36.31485 -46.22813 0 0 0
3.0473807 37.30267 -45.787651 0 0 0
3.0112164 38.646091 -53.140617 0 0 0
2.4405341 38.973526 -53.282295 0 0 0
2.3169494 38.386826 -45.777843 0 0 0
2.1043589 39.017643 -46.0783 0 0 0
3.6019931 31.945293 -48.866356 0 0 0
3.5862362 32.264847 -48.852242 0 0 0
3.8982418 32.731346 -49.068119 0 0 0
3.8603485 33.167286 -48.853127 0 0 0
-1.844501 32.987633 -47.337669 0 0 0
-0.40248412 32.5439 -47.166901 0 0 0
4.087985 33.63298 -48.825493 0 0 0
-1.0207417 32.83437 -46.994431 0 0 0
0.66761774 32.458923 -47.441433 0 0 0
4.9823389 35.336163 -49.209572 0 0 0
4.7888641 34.964848 -48.77813 0 0 0
4.938899 35.62648 -48.701393 0 0 0
5.066349 37.402348 -49.003128 0 0 0
4.6588058 33.903206 -50.516777 0 0 0
5.0640225 37.06485 -50.803131 0 0 0
-1.7652109 39.643044 -47.006348 0 0 0
-0.48550731 40.34304 -47.211819 0 0 0
0.18949273 40.251862 -46.947853 0 0 0
4.2177916 39.275505 -48.793236 0 0 0
3.2719052 40.1549 -48.77813 0 0 0
4.6777611 38.703438 -49.15313 0 0 0
-2.9796994 34.694618 -52.722717 0 0 0
-3.3273497 35.468464 -52.650185 0 0 0
-2.5269041 34.088745 -52.813065 0 0 0
-2.4129214 39.102936 -52.466873 0 0 0
-0.886397 40.078762 -52.53862 0 0 0
1.2769928 40.341553 -52.393044 0 0 0
3.4706697 33.64431 -47.407207 0 0 0
-1.9480073 32.099453 -50.428127 0 0 0
-0.33084539 34.078911 -45.631432 0 0 0
0.37699273 34.023178 -45.601906 0 0 0
-2.0114143 36.539848 -45.603386 0 0 0
1.1269928 31.772976 -48.644405 0 0 0
1.2019928 32.00629 -48.387009 0 0 0
2.4037554 34.808586 -45.628128 0 0 0
3.0245619 35.864849 -45.682182 0 0 0
-0.29800728 35.864849 -54.459915 0 0 0
-0.29800728 36.31485 -54.520031 0 0 0
0.30199274 36.164848 -54.574432 0 0 0
0.41449273 36.9711 -54.533455 0 0 0
0.97699273 36.689846 -54.524345 0 0 0
1.2019928 37.214848 -54.446247 0 0 0
2.1019926 31.364847 -48.841805 0 0 0
2.450582 31.93792 -48.607506 0 0 0
2.701993 31.664846 -48.775875 0 0 0
3.1519928 31.964848 -48.72097 0 0 0
2.994117 32.264847 -48.566498 0 0 0
3.4716547 32.743057 -48.59874 0 0 0
0.30199274 32.660027 -46.828129 0 0 0
1.1269928 32.696598 -46.828129 0 0 0
0 0 0 1 0 0 0 1 0 0 0 1 0 0 0 0 0 417 1 0 0
