ply
format ascii 1.0
comment PCL generated
element vertex 388
property float x
property float y
property float z
property uchar red
property uchar green
property uchar blue
element camera 1
property float view_px
property float view_py
property float view_pz
property float x_axisx
property float x_axisy
property float x_axisz
property float y_axisx
property float y_axisy
property float y_axisz
property float z_axisx
property float z_axisy
property float z_axisz
property float focal
property float scalex
property float scaley
property float centerx
property float centery
property int viewportx
property int viewporty
property float k1
property float k2
end_header
-36.717407 -50.018955 17.750074 0 0 0
-37.121098 -50.125484 18.563961 0 0 0
-36.762955 -49.457634 19.510277 0 0 0
-36.550247 -43.482929 20.167036 0 0 0
-36.526672 -42.798756 19.382439 0 0 0
-36.592869 -48.772476 14.527419 0 0 0
-36.453373 -49.71249 16.213387 0 0 0
-36.978706 -50.075527 16.332817 0 0 0
-37.090515 -46.371037 21.448305 0 0 0
-36.525024 -45.894428 21.121742 0 0 0
-36.328945 -49.512848 18.728792 0 0 0
-36.779987 -42.148285 18.520947 0 0 0
-37.007893 -42.24411 18.951527 0 0 0
-36.946053 -50.15168 16.980656 0 0 0
-36.952999 -48.839127 20.389215 0 0 0
-36.844833 -47.945999 20.902269 0 0 0
-36.671364 -44.358959 20.820375 0 0 0
-37.075073 -49.837231 15.485533 0 0 0
-36.946907 -48.23745 13.741438 0 0 0
-37.143196 -47.313984 21.330311 0 0 0
-36.609116 -45.214493 21.07748 0 0 0
-41.673164 -50.278725 17.521873 0 0 0
-41.26368 -50.395996 18.110567 0 0 0
-42.056393 -49.952911 18.0222 0 0 0
-42.647842 -49.455101 17.935112 0 0 0
-43.223869 -48.718094 18.046871 0 0 0
-43.566643 -48.279217 17.229866 0 0 0
-39.902084 -50.853672 17.752108 0 0 0
-39.032043 -50.860916 17.855526 0 0 0
-40.989067 -50.600422 17.371874 0 0 0
-40.496399 -50.662334 18.195194 0 0 0
-39.89801 -50.643646 18.703808 0 0 0
-38.400883 -50.796539 17.443943 0 0 0
-38.555496 -50.639427 18.632071 0 0 0
-38.035149 -50.605957 18.266933 0 0 0
-37.540154 -50.464592 17.843863 0 0 0
-44.050758 -46.785156 17.221874 0 0 0
-43.849751 -47.048576 18.347336 0 0 0
-44.073547 -46.053909 17.549999 0 0 0
-43.778576 -46.040997 18.834013 0 0 0
-43.747967 -47.712593 17.971874 0 0 0
-43.472359 -48.005886 18.561127 0 0 0
-43.857574 -47.600613 17.256929 0 0 0
-43.973103 -45.57386 18.105106 0 0 0
-43.970654 -45.159317 17.566727 0 0 0
-43.775696 -44.616135 17.825245 0 0 0
-43.73101 -45.131691 18.617214 0 0 0
-43.481297 -44.237602 18.433655 0 0 0
-43.383095 -43.702976 17.378845 0 0 0
-43.025032 -43.487576 18.392807 0 0 0
-42.764351 -42.942734 17.521873 0 0 0
-42.612274 -42.944298 18.264351 0 0 0
-41.758904 -42.195175 17.820927 0 0 0
-41.125198 -42.023453 18.582302 0 0 0
-40.798012 -41.700062 17.971874 0 0 0
-40.352764 -41.53772 17.694122 0 0 0
-40.043182 -41.669365 18.644894 0 0 0
-39.673008 -41.421711 17.634373 0 0 0
-39.52301 -41.553993 18.513771 0 0 0
-38.425583 -41.556366 18.238224 0 0 0
-38.548008 -41.439529 17.709373 0 0 0
-37.949715 -41.738712 18.603964 0 0 0
-37.048008 -41.868507 18.207741 0 0 0
-37.64801 -41.565491 17.617977 0 0 0
-37.348007 -41.684856 17.971874 0 0 0
-36.184433 -49.622688 17.808193 0 0 0
-35.69091 -49.146774 17.68037 0 0 0
-35.817753 -49.172752 18.346874 0 0 0
-35.523979 -48.775017 18.436283 0 0 0
-35.149391 -48.292343 17.30625 0 0 0
-35.061741 -48.032227 18.067942 0 0 0
-34.949577 -47.379875 18.677807 0 0 0
-41.997952 -49.487869 19.326073 0 0 0
-41.330555 -49.456192 20.012859 0 0 0
-42.910416 -48.454895 19.295238 0 0 0
-42.292534 -48.873184 19.761248 0 0 0
-41.7705 -48.952026 20.219242 0 0 0
-42.597702 -48.163834 20.015518 0 0 0
-40.525925 -50.337151 19.15674 0 0 0
-40.951302 -49.950134 19.605381 0 0 0
-40.123009 -50.126854 19.744673 0 0 0
-40.498009 -49.650795 20.27972 0 0 0
-39.298012 -50.301041 19.621874 0 0 0
-39.89801 -49.816437 20.259354 0 0 0
-39.073009 -49.823315 20.305901 0 0 0
-38.473007 -50.214027 19.612421 0 0 0
-37.796333 -50.134136 19.339273 0 0 0
-38.389885 -49.788109 20.226521 0 0 0
-37.798012 -49.65567 20.135551 0 0 0
-37.279106 -49.32444 20.180321 0 0 0
-43.083038 -47.473518 19.79203 0 0 0
-43.451164 -47.496048 19.12328 0 0 0
-42.641914 -47.29977 20.416733 0 0 0
-43.392189 -46.710152 19.59334 0 0 0
-42.937054 -46.441936 20.267958 0 0 0
-43.376461 -45.735153 19.622654 0 0 0
-42.926781 -45.672791 20.251204 0 0 0
-43.380489 -44.792931 19.22789 0 0 0
-42.997444 -44.910324 19.896715 0 0 0
-43.081123 -44.0793 19.160975 0 0 0
-42.539513 -43.98761 19.875351 0 0 0
-42.723343 -43.754917 19.419838 0 0 0
-42.11964 -43.499489 19.907814 0 0 0
-42.286968 -43.117172 19.230095 0 0 0
-41.594868 -42.877792 19.686478 0 0 0
-41.552048 -43.494026 20.382412 0 0 0
-41.231476 -42.397861 19.301678 0 0 0
-40.795185 -42.803108 20.159979 0 0 0
-39.886803 -42.306118 19.91433 0 0 0
-40.506405 -42.010426 19.166176 0 0 0
-39.677582 -41.877869 19.292736 0 0 0
-38.815331 -41.883213 19.318249 0 0 0
-38.923008 -42.474297 20.258297 0 0 0
-38.324341 -42.429649 20.079567 0 0 0
-37.01947 -43.016022 20.111944 0 0 0
-37.404457 -42.480202 19.69783 0 0 0
-37.795059 -42.880386 20.372511 0 0 0
-37.983566 -42.03257 19.315536 0 0 0
-36.039719 -48.761574 19.5144 0 0 0
-35.934872 -48.20192 19.952911 0 0 0
-35.532207 -47.673031 19.785276 0 0 0
-35.511951 -48.409988 19.059372 0 0 0
-36.005501 -47.418808 20.469994 0 0 0
-35.539391 -47.064117 20.090544 0 0 0
-35.2621 -47.680019 19.314144 0 0 0
-35.214123 -46.949585 19.645348 0 0 0
-34.985172 -46.365528 19.296259 0 0 0
-35.679222 -46.597656 20.353191 0 0 0
-35.224792 -46.185158 19.808699 0 0 0
-35.591179 -45.810154 20.273571 0 0 0
-42.03793 -48.887779 14.408264 0 0 0
-35.397694 -45.094776 19.853727 0 0 0
-41.394463 -49.190125 14.211834 0 0 0
-41.844254 -49.47451 14.93396 0 0 0
-35.169052 -45.368172 19.550823 0 0 0
-42.762001 -48.478455 14.841867 0 0 0
-35.23967 -44.797165 19.471874 0 0 0
-42.167587 -48.176769 13.957056 0 0 0
-35.565365 -44.356735 19.746569 0 0 0
-40.955067 -50.032753 15.04541 0 0 0
-35.965874 -44.405285 20.254515 0 0 0
-36.046455 -43.658264 19.811199 0 0 0
-35.557667 -43.951115 19.45298 0 0 0
-40.631378 -49.823452 14.538804 0 0 0
-35.835461 -43.594032 19.490925 0 0 0
-40.010506 -49.849686 14.403295 0 0 0
-35.381279 -44.385155 19.471874 0 0 0
-39.598007 -49.485153 13.933832 0 0 0
-39.149784 -50.054321 14.646816 0 0 0
-38.791759 -49.477371 14.003896 0 0 0
-40.807114 -49.192268 13.919356 0 0 0
-38.347778 -50.126026 15.026438 0 0 0
-38.078842 -49.494831 14.213186 0 0 0
-37.490189 -49.511124 14.550238 0 0 0
-37.518341 -48.912861 13.89938 0 0 0
-36.887356 -49.343075 14.821875 0 0 0
-42.963936 -47.766708 14.547554 0 0 0
-42.848278 -47.177959 14.118218 0 0 0
-43.387222 -46.860153 14.737419 0 0 0
-43.145599 -46.035156 14.293074 0 0 0
-43.251999 -45.110001 14.637936 0 0 0
-42.721832 -45.210152 13.917319 0 0 0
-40.570862 -48.05138 13.041235 0 0 0
-41.019325 -47.471275 12.960312 0 0 0
-42.681652 -44.395077 14.266843 0 0 0
-40.418659 -47.308064 12.707647 0 0 0
-39.748009 -47.729485 12.759212 0 0 0
-38.998009 -47.96257 12.831261 0 0 0
-42.459145 -43.8526 14.433254 0 0 0
-39.89801 -47.066238 12.545094 0 0 0
-39.223011 -47.142075 12.499242 0 0 0
-41.787258 -43.166817 14.397814 0 0 0
-41.176117 -46.554863 12.789608 0 0 0
-40.226646 -46.410156 12.474895 0 0 0
-41.861027 -46.128906 13.119221 0 0 0
-40.807674 -46.181923 12.611456 0 0 0
-41.367283 -45.660156 12.841395 0 0 0
-41.414455 -43.322296 13.91209 0 0 0
-39.298008 -46.260155 12.368416 0 0 0
-40.915596 -42.820465 14.098695 0 0 0
-41.544464 -42.636185 14.821875 0 0 0
-40.932781 -42.320816 14.808233 0 0 0
-38.403748 -48.069038 12.982103 0 0 0
-38.703888 -47.145153 12.544315 0 0 0
-38.098007 -47.553261 12.818173 0 0 0
-38.33786 -46.485153 12.499375 0 0 0
-38.623009 -45.885155 12.411493 0 0 0
-40.468307 -42.426865 14.360407 0 0 0
-40.198006 -42.860413 13.768158 0 0 0
-39.5681 -42.169876 14.597897 0 0 0
-40.771404 -45.506546 12.601561 0 0 0
-39.598007 -42.702057 13.908342 0 0 0
-38.990593 -42.581161 14.21509 0 0 0
-40.198006 -45.660156 12.421003 0 0 0
-41.489857 -44.928276 13.030174 0 0 0
-40.068836 -42.027214 14.892408 0 0 0
-40.715237 -44.691322 12.747494 0 0 0
-39.560509 -45.585155 12.355022 0 0 0
-38.775162 -45.326141 12.477184 0 0 0
-39.89801 -44.92384 12.482973 0 0 0
-39.448009 -45.135155 12.402452 0 0 0
-39.226185 -44.707542 12.56484 0 0 0
-40.602013 -44.044922 12.991167 0 0 0
-38.548008 -42.620708 14.257078 0 0 0
-38.309906 -42.418045 14.354506 0 0 0
-38.698006 -42.142433 14.823577 0 0 0
-39.729248 -44.089279 12.802439 0 0 0
-38.251862 -42.042488 14.81879 0 0 0
-39.083416 -44.076401 12.9284 0 0 0
-38.323009 -44.842461 12.758057 0 0 0
-38.526329 -44.294563 12.980381 0 0 0
-41.838581 -50.140797 16.706869 0 0 0
-41.765671 -49.879158 15.576288 0 0 0
-42.594009 -49.451126 16.22073 0 0 0
-41.255764 -50.349037 16.112398 0 0 0
-43.143898 -48.877907 16.480696 0 0 0
-43.359192 -48.161831 15.641309 0 0 0
-42.698891 -48.993992 15.446414 0 0 0
-39.407166 -50.78751 16.286226 0 0 0
-40.79377 -50.423347 15.726019 0 0 0
-40.498009 -50.647942 16.171873 0 0 0
-39.844635 -50.591373 15.688254 0 0 0
-40.791862 -50.656998 16.771873 0 0 0
-39.852646 -50.856205 16.958504 0 0 0
-38.998009 -50.560513 15.600491 0 0 0
-38.722878 -50.779221 16.502457 0 0 0
-38.408524 -50.592537 15.998347 0 0 0
-37.819317 -50.409645 16.050549 0 0 0
-37.874931 -50.612728 16.815159 0 0 0
-43.916691 -46.859509 16.035164 0 0 0
-43.973148 -47.104675 16.560055 0 0 0
-44.030441 -46.335155 16.359375 0 0 0
-43.898338 -46.204895 15.721874 0 0 0
-44.052254 -45.660156 16.621874 0 0 0
-43.679981 -47.932777 16.471874 0 0 0
-43.686684 -47.338627 15.679941 0 0 0
-43.905529 -45.374199 16.077806 0 0 0
-43.664673 -44.942215 15.577732 0 0 0
-43.6455 -44.283173 16.502501 0 0 0
-43.37154 -43.897747 16.14452 0 0 0
-42.970535 -43.410782 15.94259 0 0 0
-42.941769 -43.135803 16.771873 0 0 0
-42.171082 -42.842072 15.368616 0 0 0
-42.195755 -42.53849 16.270357 0 0 0
-41.678436 -42.094357 16.659374 0 0 0
-41.181381 -42.037426 15.726171 0 0 0
-41.078663 -41.75988 16.938152 0 0 0
-40.238747 -41.726486 15.68756 0 0 0
-40.460175 -41.596375 16.411373 0 0 0
-39.748009 -41.433304 16.828125 0 0 0
-39.373009 -41.5844 15.721874 0 0 0
-39.298012 -41.450249 16.359373 0 0 0
-38.58551 -41.565109 15.945915 0 0 0
-38.39801 -41.432236 16.734375 0 0 0
-37.948009 -41.430817 16.471874 0 0 0
-35.808472 -49.110947 16.327673 0 0 0
-40.636948 -48.276146 21.309971 0 0 0
-39.777882 -48.648243 21.308641 0 0 0
-38.998009 -48.735157 21.288748 0 0 0
-39.260513 -47.916267 21.695671 0 0 0
-38.20203 -48.434891 21.309902 0 0 0
-41.369492 -47.267731 21.391905 0 0 0
-41.628048 -46.491432 21.382896 0 0 0
-41.63961 -45.66188 21.334991 0 0 0
-41.020554 -44.830803 21.432243 0 0 0
-41.39801 -47.989151 21.124702 0 0 0
-40.557343 -47.454189 21.677525 0 0 0
-39.833138 -47.634331 21.7631 0 0 0
-40.948009 -46.485157 21.706076 0 0 0
-40.006096 -46.848331 21.931953 0 0 0
-40.452637 -46.410156 21.874454 0 0 0
-38.478703 -48.001663 21.592072 0 0 0
-37.905926 -47.656857 21.575201 0 0 0
-38.574272 -47.07737 21.87089 0 0 0
-37.902439 -46.679783 21.764587 0 0 0
-37.496113 -48.210155 21.164066 0 0 0
-38.387909 -45.596481 21.866791 0 0 0
-37.64801 -46.185158 21.713821 0 0 0
-40.733315 -45.548004 21.726391 0 0 0
-39.973007 -44.511154 21.618643 0 0 0
-39.589767 -44.977745 21.829264 0 0 0
-39.007 -44.976891 21.834293 0 0 0
-40.795433 -43.706223 20.9461 0 0 0
-39.119884 -44.114819 21.48579 0 0 0
-39.973007 -43.809494 21.271614 0 0 0
-38.098007 -45.210155 21.742397 0 0 0
-38.283752 -44.447342 21.539583 0 0 0
-37.259533 -45.634705 21.51058 0 0 0
-37.261501 -44.969261 21.383457 0 0 0
-38.307907 -43.551579 21.091721 0 0 0
-37.486904 -44.224339 21.211031 0 0 0
-42.330227 -49.515511 18.715803 0 0 0
-41.573021 -49.969994 18.950245 0 0 0
-42.920967 -48.856209 18.728699 0 0 0
-41.086906 -50.301208 18.770388 0 0 0
-39.260509 -50.659332 18.794477 0 0 0
-37.209534 -50.008999 19.037184 0 0 0
-43.713341 -46.652863 18.953867 0 0 0
-41.928757 -42.604553 18.845158 0 0 0
-35.862457 -49.035156 18.838795 0 0 0
-35.182388 -48.030777 18.713432 0 0 0
-34.963951 -47.047653 19.015419 0 0 0
-34.755623 -46.485153 18.571875 0 0 0
-34.845695 -46.185158 18.871874 0 0 0
-36.448009 -42.475246 18.815699 0 0 0
-41.405888 -48.493111 13.640051 0 0 0
-40.715691 -48.59771 13.417003 0 0 0
-40.048008 -48.60215 13.238556 0 0 0
-39.373009 -48.711212 13.287521 0 0 0
-40.048008 -49.114124 13.632597 0 0 0
-38.356544 -48.897942 13.557355 0 0 0
-37.731609 -48.210625 13.299053 0 0 0
-41.705917 -47.521599 13.302217 0 0 0
-41.812851 -46.840759 13.181599 0 0 0
-42.573402 -46.335155 13.677431 0 0 0
-42.09903 -45.123211 13.389574 0 0 0
-41.387135 -44.170235 13.290748 0 0 0
-41.927345 -44.158989 13.673708 0 0 0
-41.018661 -43.527252 13.47492 0 0 0
-40.277779 -43.459442 13.268819 0 0 0
-39.566036 -43.342804 13.330227 0 0 0
-38.967354 -43.30896 13.579808 0 0 0
-38.548008 -43.29591 13.687613 0 0 0
-42.646603 -49.533287 16.996874 0 0 0
-42.180229 -49.959492 17.221874 0 0 0
-43.204407 -48.890465 17.221874 0 0 0
-38.848007 -50.885529 17.221874 0 0 0
-43.955166 -45.025337 16.921875 0 0 0
-43.701523 -44.302094 17.221874 0 0 0
-42.196938 -42.398151 17.221874 0 0 0
-38.998009 -41.361897 17.221874 0 0 0
-37.948009 -41.467888 17.146873 0 0 0
-36.153961 -49.642639 16.954983 0 0 0
-35.714642 -49.170536 16.933435 0 0 0
-42.048988 -48.221371 20.537226 0 0 0
-41.249439 -48.813889 20.691111 0 0 0
-40.393597 -49.072693 20.863317 0 0 0
-39.748009 -49.249699 20.878174 0 0 0
-38.904259 -49.228485 20.896675 0 0 0
-37.91259 -49.071045 20.769722 0 0 0
-42.078022 -47.383575 20.89983 0 0 0
-42.352058 -46.560154 20.869751 0 0 0
-42.257412 -45.821148 20.923384 0 0 0
-42.457085 -44.97459 20.526302 0 0 0
-41.977509 -44.081997 20.508333 0 0 0
-37.172295 -43.405563 20.543438 0 0 0
-39.811348 -42.855984 20.547672 0 0 0
-39.035507 -43.11536 20.862087 0 0 0
-38.548008 -42.824898 20.579723 0 0 0
-36.389359 -48.194855 20.413298 0 0 0
-39.843628 -50.311203 15.061702 0 0 0
-37.664284 -50.044243 15.308486 0 0 0
-43.423908 -47.54565 15.121874 0 0 0
-43.662262 -46.485153 15.16143 0 0 0
-43.677399 -45.885155 15.149547 0 0 0
-43.189323 -44.269741 15.135098 0 0 0
-42.588448 -43.357136 15.197463 0 0 0
-41.639084 -42.389858 15.420008 0 0 0
-39.22197 -41.778614 15.283813 0 0 0
-38.356636 -41.754677 15.428065 0 0 0
-38.248009 -41.816032 15.230486 0 0 0
-35.897453 -46.185158 20.623766 0 0 0
-35.972649 -45.120277 20.544601 0 0 0
-36.420044 -49.353531 15.431652 0 0 0
-35.995502 -48.84417 15.358136 0 0 0
-39.298012 -46.785156 21.991714 0 0 0
-39.89801 -46.185158 21.984161 0 0 0
-39.223007 -46.185158 22.014782 0 0 0
-38.548008 -46.185158 21.959887 0 0 0
-39.823009 -45.585155 21.950474 0 0 0
-39.298012 -45.585155 21.97604 0 0 0
-42.511433 -49.106636 19.171873 0 0 0
-34.948009 -45.735157 19.205608 0 0 0
-34.948009 -45.285156 19.177286 0 0 0
-34.948009 -44.835155 19.200216 0 0 0
-35.548008 -43.635155 19.285542 0 0 0
-35.248009 -44.535156 19.391521 0 0 0
-35.248009 -44.235157 19.344795 0 0 0
-36.08062 -43.005611 19.203999 0 0 0
-35.848007 -43.335155 19.280983 0 0 0
-42.438847 -47.423805 13.77978 0 0 0
-41.967422 -45.135155 21.011135 0 0 0
-41.680431 -44.536827 20.981482 0 0 0
-37.879753 -43.468582 20.918566 0 0 0
-39.859482 -43.32333 20.967537 0 0 0
-36.463551 -47.117203 20.968008 0 0 0
-36.340755 -46.485153 20.985497 0 0 0
-32.526085 -46.620945 22.758345 0 0 0
0 0 0 1 0 0 0 1 0 0 0 1 0 0 0 0 0 388 1 0 0
