ply
format ascii 1.0
comment PCL generated
element vertex 418
property float x
property float y
property float z
property uchar red
property uchar green
property uchar blue
element camera 1
property float view_px
property float view_py
property float view_pz
property float x_axisx
property float x_axisy
property float x_axisz
property float y_axisx
property float y_axisy
property float y_axisz
property float z_axisx
property float z_axisy
property float z_axisz
property float focal
property float scalex
property float scaley
property float centerx
property float centery
property int viewportx
property int viewporty
property float k1
property float k2
end_header
11.678192 -61.628311 67.333008 0 0 0
10.883018 -62.083633 66.894463 0 0 0
10.64414 -61.41671 66.992592 0 0 0
8.6879787 -58.026817 70.691025 0 0 0
8.9269934 -58.161713 69.799072 0 0 0
9.9168901 -58.021427 70.367172 0 0 0
10.186151 -58.017521 71.409515 0 0 0
8.7042389 -58.030544 71.529572 0 0 0
9.3184519 -58.075336 72.116486 0 0 0
10.221188 -58.137951 72.121872 0 0 0
9.5726013 -62.916664 75.869675 0 0 0
9.0842829 -63.457626 75.834152 0 0 0
11.62559 -62.722656 75.31514 0 0 0
11.924988 -63.589596 75.086594 0 0 0
11.179628 -61.414886 75.278412 0 0 0
10.796322 -60.913956 75.234482 0 0 0
10.41963 -61.273857 75.477806 0 0 0
10.277535 -60.494995 75.148422 0 0 0
9.5269928 -60.622314 75.29245 0 0 0
9.6756477 -61.217407 75.561394 0 0 0
8.9906197 -61.169056 75.527481 0 0 0
10.94278 -62.083862 75.544609 0 0 0
9.9769936 -62.160156 75.782669 0 0 0
10.52411 -62.891403 75.713943 0 0 0
9.6019936 -61.785156 75.735748 0 0 0
8.9824533 -62.196732 75.786316 0 0 0
8.3961067 -60.471275 75.063263 0 0 0
8.2193623 -61.090061 75.343552 0 0 0
8.2729359 -61.748795 75.583588 0 0 0
7.5933542 -61.643242 75.324989 0 0 0
7.9703903 -62.544529 75.639671 0 0 0
7.1997032 -62.160156 75.27417 0 0 0
11.09465 -63.602448 75.505875 0 0 0
9.9769936 -63.585159 75.788345 0 0 0
10.64925 -63.960155 75.583038 0 0 0
9.636692 -64.10762 75.704071 0 0 0
11.304226 -64.253441 75.24659 0 0 0
10.653391 -64.654121 75.333862 0 0 0
9.0019932 -64.245468 75.661789 0 0 0
9.9019928 -64.925064 75.371185 0 0 0
9.0019932 -65.060486 75.311996 0 0 0
8.4019928 -63.360157 75.755798 0 0 0
7.4788723 -63.266407 75.446182 0 0 0
7.7237296 -63.890137 75.461533 0 0 0
8.3820581 -64.146416 75.585953 0 0 0
8.2519932 -64.783478 75.327126 0 0 0
7.5992165 -64.639763 75.152084 0 0 0
11.175447 -60.419579 74.806572 0 0 0
12.024431 -61.030006 74.66481 0 0 0
11.885513 -61.879967 75.060242 0 0 0
12.54827 -62.012794 74.616547 0 0 0
12.184776 -62.760155 74.994606 0 0 0
12.637524 -63.078903 74.625694 0 0 0
12.69117 -63.763458 74.463379 0 0 0
11.966679 -64.344994 74.83902 0 0 0
11.399384 -64.890533 74.913208 0 0 0
10.467941 -59.828804 74.676971 0 0 0
9.8659124 -59.94146 74.847862 0 0 0
9.1954594 -59.936672 74.854599 0 0 0
8.6805038 -59.621559 74.510635 0 0 0
7.7433467 -60.027287 74.53714 0 0 0
7.2814512 -60.806114 74.825851 0 0 0
6.7589827 -61.413734 74.778839 0 0 0
6.569108 -61.925331 74.845566 0 0 0
6.2820282 -62.778908 74.704971 0 0 0
10.495116 -65.305893 75.027641 0 0 0
6.7468681 -63.172653 75.056747 0 0 0
6.9794903 -63.977325 75.077866 0 0 0
6.8974619 -64.497162 74.835129 0 0 0
7.8730936 -65.56636 74.729721 0 0 0
7.1129308 -65.182541 74.60453 0 0 0
11.188281 -65.587509 74.516823 0 0 0
10.320165 -66.085182 74.409332 0 0 0
9.6019936 -65.746735 74.873497 0 0 0
9.1519928 -65.59227 75.013229 0 0 0
9.1519938 -66.340034 74.281647 0 0 0
8.435441 -65.674438 74.833611 0 0 0
6.2340965 -63.735157 74.583748 0 0 0
11.598667 -60.116005 74.386856 0 0 0
11.899166 -59.783039 73.839996 0 0 0
12.177776 -60.499168 74.217903 0 0 0
12.624588 -61.197021 74.245743 0 0 0
13.042895 -61.750252 74.060585 0 0 0
12.990637 -62.347656 74.25737 0 0 0
13.206913 -63.605133 73.931168 0 0 0
12.893939 -64.477219 73.898712 0 0 0
12.47737 -64.466667 74.395538 0 0 0
12.426398 -65.31443 73.730377 0 0 0
12.158819 -64.942741 74.37188 0 0 0
11.682837 -65.535156 74.23317 0 0 0
10.789106 -59.51627 74.259773 0 0 0
11.357006 -58.944523 68.911339 0 0 0
12.262131 -59.489578 69.078621 0 0 0
9.8269939 -59.388512 74.388077 0 0 0
12.870654 -59.99538 69.348495 0 0 0
12.867193 -60.797314 68.543854 0 0 0
8.0931225 -59.373299 74.077423 0 0 0
13.554329 -61.262901 69.394478 0 0 0
13.592989 -62.010155 69.022171 0 0 0
13.282687 -61.53997 68.678253 0 0 0
6.9612532 -60.067818 74.082481 0 0 0
13.676151 -62.966408 69.114334 0 0 0
6.5994396 -60.569443 74.190491 0 0 0
6.0784259 -61.223179 74.103134 0 0 0
5.877254 -62.085159 74.235214 0 0 0
5.7592802 -62.985157 74.175209 0 0 0
6.3882303 -64.824776 74.239365 0 0 0
10.811357 -66.52948 73.693832 0 0 0
7.9657321 -66.344437 74.006943 0 0 0
7.2478838 -66.0177 73.971985 0 0 0
13.796925 -63.848389 69.684708 0 0 0
5.6602154 -63.67474 73.974495 0 0 0
13.429358 -63.937641 68.830154 0 0 0
13.333576 -64.335159 68.787346 0 0 0
5.7623196 -64.185158 73.901466 0 0 0
13.374885 -64.635155 68.971878 0 0 0
11.005592 -58.611252 69.21373 0 0 0
10.351994 -58.586021 68.841232 0 0 0
9.8282738 -58.380569 69.12999 0 0 0
9.1519928 -58.333134 69.168556 0 0 0
8.5790672 -58.382942 69.274155 0 0 0
8.0241776 -58.780376 68.779076 0 0 0
7.3624682 -58.873802 69.132874 0 0 0
6.6310835 -59.463898 68.999619 0 0 0
6.0439558 -59.99226 69.090912 0 0 0
6.4662647 -60.032623 68.492447 0 0 0
6.003068 -60.644493 68.481468 0 0 0
5.5468335 -60.559055 69.306053 0 0 0
5.422965 -61.452309 68.77446 0 0 0
5.1066961 -61.227509 69.698563 0 0 0
5.0311546 -62.208431 69.198013 0 0 0
4.9683294 -62.841988 69.232864 0 0 0
5.1430998 -63.897232 69.154938 0 0 0
5.8376961 -64.201363 68.376617 0 0 0
5.3744688 -64.526443 69.188576 0 0 0
5.8192644 -65.123169 69.090652 0 0 0
6.122951 -65.320808 68.523674 0 0 0
6.1480913 -65.747383 69.046875 0 0 0
6.3184576 -66.135155 68.971878 0 0 0
11.822441 -59.364407 73.421234 0 0 0
12.483278 -59.948456 73.386948 0 0 0
12.644291 -60.56588 73.819176 0 0 0
13.073246 -61.030273 73.606812 0 0 0
13.481332 -62.043961 73.50367 0 0 0
13.283867 -62.910156 73.942169 0 0 0
13.150463 -64.042419 73.83284 0 0 0
11.621492 -66.124512 73.642731 0 0 0
11.123672 -59.077106 73.605072 0 0 0
10.268606 -58.709217 73.455353 0 0 0
9.9019928 -58.955643 73.914375 0 0 0
9.3019924 -58.883438 73.837776 0 0 0
8.5740719 -58.764404 73.488205 0 0 0
7.283185 -59.379345 73.635406 0 0 0
6.8952608 -59.334389 73.158119 0 0 0
6.2497044 -60.208378 73.511475 0 0 0
5.8133626 -60.967434 73.607018 0 0 0
5.5105133 -61.542122 73.537415 0 0 0
5.5101767 -62.235157 73.832672 0 0 0
5.2838869 -63.034866 73.502396 0 0 0
10.072529 -66.757057 73.688873 0 0 0
6.4622049 -65.667511 73.614983 0 0 0
8.4309711 -66.763504 73.642761 0 0 0
7.6731062 -66.760681 73.216782 0 0 0
5.4465284 -64.515846 73.194672 0 0 0
5.9721799 -65.058861 73.623825 0 0 0
12.455233 -59.459709 72.720238 0 0 0
13.674811 -62.910156 73.288406 0 0 0
13.120283 -60.369797 72.888138 0 0 0
13.495208 -61.192017 73.016151 0 0 0
13.670672 -61.795456 73.037361 0 0 0
13.702337 -63.415955 73.101685 0 0 0
13.687014 -64.019073 72.739761 0 0 0
13.174446 -64.881042 73.087006 0 0 0
12.738777 -65.519089 73.125748 0 0 0
12.163036 -66.262482 72.770126 0 0 0
11.714916 -66.378685 73.199387 0 0 0
10.771214 -58.494831 72.779282 0 0 0
9.4559202 -58.437328 73.09375 0 0 0
7.752212 -58.791214 73.107002 0 0 0
6.1690021 -59.680508 72.670349 0 0 0
5.7094831 -60.428108 72.921326 0 0 0
5.2401786 -61.521713 73.027351 0 0 0
5.0224333 -62.384415 72.916626 0 0 0
11.1038 -66.852989 72.84597 0 0 0
10.406673 -66.970276 73.179947 0 0 0
10.278238 -67.240448 72.436806 0 0 0
9.5269928 -67.063301 73.292709 0 0 0
6.8843398 -66.251221 73.320892 0 0 0
8.6403198 -67.051949 73.238998 0 0 0
7.2962623 -66.850616 72.672974 0 0 0
5.1498318 -63.885155 73.081375 0 0 0
5.7244406 -65.309044 72.929581 0 0 0
6.4390736 -66.22332 72.725235 0 0 0
12.439188 -60.271957 68.41127 0 0 0
11.672293 -59.588516 68.356735 0 0 0
11.919003 -60.203728 67.970894 0 0 0
12.902174 -61.485703 68.226898 0 0 0
11.6821 -58.804585 72.597214 0 0 0
12.297403 -61.106178 67.822754 0 0 0
12.909662 -62.542435 67.987259 0 0 0
13.386499 -62.235157 68.619278 0 0 0
13.295847 -63.266407 68.471069 0 0 0
12.696638 -59.440971 72.114304 0 0 0
13.895061 -61.586388 72.212067 0 0 0
13.873322 -62.491135 72.79248 0 0 0
13.62006 -60.806595 72.111275 0 0 0
13.99271 -63.438118 72.105408 0 0 0
13.362708 -65.093216 72.353386 0 0 0
13.697208 -64.481659 72.265106 0 0 0
12.988688 -65.695084 72.251556 0 0 0
13.061841 -63.885155 68.204369 0 0 0
8.7373085 -58.227848 72.408257 0 0 0
13.197268 -64.335159 68.37188 0 0 0
13.376894 -64.635155 68.671875 0 0 0
8.0676241 -58.308327 72.149712 0 0 0
7.2039137 -58.744835 72.351364 0 0 0
10.88048 -59.132423 68.360382 0 0 0
9.9126778 -58.76062 68.454498 0 0 0
9.1894932 -58.753075 68.444351 0 0 0
6.5036192 -59.162277 72.172295 0 0 0
8.8053274 -58.635155 68.658028 0 0 0
5.4332614 -60.376114 72.153732 0 0 0
8.4187355 -58.917648 68.347961 0 0 0
5.1593957 -61.185234 72.52301 0 0 0
7.9311647 -59.194855 68.223167 0 0 0
7.2236805 -59.34544 68.510254 0 0 0
7.3247476 -59.886997 67.885345 0 0 0
9.6019936 -67.286682 72.637085 0 0 0
5.8155441 -61.185158 68.313545 0 0 0
8.701993 -67.259033 72.697929 0 0 0
5.3086433 -62.65575 68.506287 0 0 0
5.5753717 -62.385155 68.142693 0 0 0
7.951993 -67.172913 72.571877 0 0 0
4.9170055 -63.247658 72.709976 0 0 0
5.5495186 -63.285156 68.21611 0 0 0
5.308176 -63.135155 68.50087 0 0 0
4.8272176 -63.563248 72.254257 0 0 0
5.8994246 -63.342491 67.923492 0 0 0
5.313396 -64.81366 72.646881 0 0 0
5.049427 -64.400436 72.351196 0 0 0
6.0748329 -64.800064 68.263878 0 0 0
5.9614439 -65.972656 72.241806 0 0 0
6.2414241 -65.685158 68.521881 0 0 0
11.65661 -58.557899 71.739532 0 0 0
12.076213 -58.906174 72.147507 0 0 0
13.282192 -60.144039 72.059677 0 0 0
14.072645 -62.385155 71.971878 0 0 0
13.98436 -64.017395 71.51384 0 0 0
13.731484 -64.714912 71.490997 0 0 0
12.636532 -66.169441 72.061737 0 0 0
12.252939 -66.529648 71.786957 0 0 0
11.510334 -66.905617 72.169228 0 0 0
11.017189 -58.27692 71.817993 0 0 0
7.2211227 -58.583282 71.794113 0 0 0
6.0028124 -59.487175 71.671883 0 0 0
4.7674074 -61.860157 71.746872 0 0 0
4.7220154 -62.67886 72.042374 0 0 0
10.764492 -67.229446 72.067963 0 0 0
9.2457428 -67.453865 71.821877 0 0 0
8.7769928 -67.434082 72.009369 0 0 0
8.1806755 -67.329163 72.037994 0 0 0
7.6228409 -67.180916 71.666008 0 0 0
6.5941725 -66.623047 71.971878 0 0 0
4.7900271 -64.013214 71.212502 0 0 0
5.26054 -65.111641 71.829865 0 0 0
9.3207426 -57.95446 71.446877 0 0 0
11.108387 -59.954376 67.623566 0 0 0
11.57109 -60.597923 67.559097 0 0 0
12.55518 -62.028908 67.771439 0 0 0
11.957695 -62.213303 67.325905 0 0 0
12.370716 -62.657761 67.437576 0 0 0
12.302679 -58.938305 71.521881 0 0 0
12.754663 -59.347137 71.446877 0 0 0
13.228308 -59.922638 71.334381 0 0 0
12.815634 -63.285156 67.744278 0 0 0
12.746748 -63.45105 67.510796 0 0 0
12.873971 -63.735157 67.771873 0 0 0
13.029516 -64.087021 68.071877 0 0 0
10.272697 -59.328316 67.863029 0 0 0
13.669598 -60.622009 71.221878 0 0 0
13.951475 -61.381226 71.37188 0 0 0
14.107697 -62.085159 71.296875 0 0 0
14.138531 -62.985157 71.18438 0 0 0
10.1224 -59.929821 67.306763 0 0 0
9.7519932 -59.42646 67.651245 0 0 0
8.7582436 -59.444363 67.688736 0 0 0
8.1805105 -59.683014 67.613113 0 0 0
13.404624 -65.364105 71.521881 0 0 0
12.922602 -66.022751 71.22052 0 0 0
6.6170559 -60.460972 67.92717 0 0 0
7.2551599 -60.696228 67.314423 0 0 0
6.5681281 -61.096512 67.58728 0 0 0
11.691462 -66.881302 71.671875 0 0 0
12.086069 -66.686768 71.37188 0 0 0
6.0054898 -61.702271 67.860176 0 0 0
11.769239 -66.950394 71.37188 0 0 0
11.551993 -67.035156 71.498199 0 0 0
6.2588692 -62.085159 67.465858 0 0 0
6.269896 -62.610157 67.449135 0 0 0
5.8566818 -62.663887 67.770813 0 0 0
7.8318043 -58.259216 71.104904 0 0 0
5.5824108 -62.835155 68.071877 0 0 0
6.3205938 -63.596214 67.640442 0 0 0
6.2265954 -64.485153 67.829674 0 0 0
6.2768593 -65.085159 67.921875 0 0 0
6.4848037 -58.998688 71.109375 0 0 0
5.5206714 -60.01944 71.446877 0 0 0
5.1817732 -60.589066 71.53418 0 0 0
4.8835921 -61.272293 71.366348 0 0 0
4.6513934 -62.306984 71.07312 0 0 0
10.901431 -67.26268 71.671875 0 0 0
8.4019928 -67.502693 71.37188 0 0 0
6.6158323 -66.692436 71.299942 0 0 0
7.2454119 -67.071274 70.865631 0 0 0
4.6284213 -63.124981 71.296875 0 0 0
5.5400333 -65.691666 71.446877 0 0 0
5.8853002 -66.10376 71.521881 0 0 0
9.3019924 -57.97477 70.621872 0 0 0
12.12303 -58.801605 70.753128 0 0 0
11.130471 -58.268291 70.790627 0 0 0
12.686016 -59.30072 70.584381 0 0 0
13.205923 -59.924908 70.575966 0 0 0
13.597509 -60.529522 70.621872 0 0 0
13.969011 -61.482849 70.771873 0 0 0
14.067739 -62.010159 70.621872 0 0 0
14.084743 -62.97578 70.359375 0 0 0
13.999624 -63.91127 70.69722 0 0 0
13.675024 -64.856781 70.658554 0 0 0
13.37016 -65.434875 70.696877 0 0 0
13.079229 -65.871735 70.771873 0 0 0
12.811928 -66.213882 70.771873 0 0 0
12.478353 -66.454208 71.071877 0 0 0
8.0380459 -58.231094 70.335709 0 0 0
6.9198513 -58.707947 70.678123 0 0 0
5.882843 -59.535156 70.921875 0 0 0
5.538373 -60.002304 70.546875 0 0 0
5.1249399 -60.644829 70.927216 0 0 0
4.8114901 -61.560154 70.509369 0 0 0
4.6772919 -62.734398 70.362534 0 0 0
7.8536739 -67.386749 71.071877 0 0 0
4.6582332 -63.345249 70.734375 0 0 0
5.0088348 -64.681755 70.582031 0 0 0
5.4728336 -65.632339 70.771873 0 0 0
6.1371331 -66.26162 70.750969 0 0 0
5.2344031 -65.267609 70.921875 0 0 0
12.014342 -62.819374 67.011063 0 0 0
11.177048 -62.566364 66.724594 0 0 0
12.631066 -63.135155 67.471878 0 0 0
12.884976 -63.735157 67.471878 0 0 0
12.751993 -63.437515 67.063713 0 0 0
12.451993 -63.130775 67.16658 0 0 0
10.351994 -60.297752 67.14798 0 0 0
9.3769932 -59.732986 67.343605 0 0 0
9.4144936 -60.376472 66.940491 0 0 0
8.5862713 -60.326065 67.027847 0 0 0
8.0812969 -60.271847 67.163177 0 0 0
10.951233 -60.79493 67.200172 0 0 0
10.018686 -60.825867 66.887688 0 0 0
7.8245506 -60.930943 66.926758 0 0 0
7.5317149 -61.552086 66.809746 0 0 0
6.8143806 -61.795944 67.119408 0 0 0
6.8459558 -62.160156 67.080261 0 0 0
7.625164 -62.384521 66.799362 0 0 0
7.2195525 -62.759239 66.958221 0 0 0
6.8826332 -63.120083 67.179794 0 0 0
7.0489511 -63.516739 66.973236 0 0 0
6.6028275 -64.030373 67.309418 0 0 0
6.5186453 -64.485153 67.290909 0 0 0
6.3552155 -64.935158 67.471878 0 0 0
11.677959 -58.591858 70.171875 0 0 0
11.953762 -58.909134 69.756195 0 0 0
12.61697 -59.434452 69.840218 0 0 0
13.170611 -60.064484 69.943344 0 0 0
13.740316 -61.113091 70.127113 0 0 0
13.88644 -62.03709 69.760864 0 0 0
13.652948 -64.59745 69.954201 0 0 0
13.387108 -65.303001 70.021881 0 0 0
13.289307 -65.535156 70.171875 0 0 0
13.082197 -65.884781 70.471878 0 0 0
11.087347 -58.378716 69.946877 0 0 0
10.36763 -58.239056 69.751511 0 0 0
7.2059288 -58.6436 70.014412 0 0 0
6.8147011 -58.956238 69.774017 0 0 0
6.1994181 -59.392475 70.019363 0 0 0
5.6478434 -60.099667 69.7929 0 0 0
5.1385651 -60.749584 70.318542 0 0 0
4.775991 -62.085159 70.096878 0 0 0
7.1065021 -66.990341 70.471878 0 0 0
6.77562 -66.713745 70.171875 0 0 0
4.7922807 -63.885155 70.321877 0 0 0
4.8750019 -63.642761 69.755157 0 0 0
5.2614956 -65.215187 70.293945 0 0 0
5.5258121 -65.565109 70.330208 0 0 0
5.9193096 -65.818436 69.981819 0 0 0
12.336088 -63.164005 66.87188 0 0 0
9.1144934 -60.885155 66.738358 0 0 0
9.7519932 -61.485153 66.760895 0 0 0
8.8144932 -61.485153 66.650772 0 0 0
10.100886 -62.361313 66.531296 0 0 0
9.2269926 -61.863121 66.598869 0 0 0
8.1019936 -61.335155 66.672546 0 0 0
8.5727119 -62.077679 66.585449 0 0 0
7.9894934 -61.785156 66.67981 0 0 0
8.8519936 -62.385155 66.426727 0 0 0
8.2085419 -62.68177 66.51416 0 0 0
13.949306 -62.778908 69.74437 0 0 0
13.328341 -60.549011 69.571877 0 0 0
13.443999 -64.785156 69.421875 0 0 0
13.396013 -65.085159 69.421875 0 0 0
9.6019936 -58.165363 69.646881 0 0 0
8.2519932 -58.236256 69.87188 0 0 0
7.7584238 -58.47757 69.685379 0 0 0
6.4752917 -66.410995 69.87188 0 0 0
6.4787073 -66.395477 69.571877 0 0 0
5.5054307 -65.096634 69.581291 0 0 0
5.1722479 -64.79644 69.855797 0 0 0
6.1914673 -66.018555 69.571877 0 0 0
6.3210273 -66.135155 69.271873 0 0 0
0 0 0 1 0 0 0 1 0 0 0 1 0 0 0 0 0 418 1 0 0
