ply
format ascii 1.0
comment PCL generated
element vertex 245
property float x
property float y
property float z
property uchar red
property uchar green
property uchar blue
element camera 1
property float view_px
property float view_py
property float view_pz
property float x_axisx
property float x_axisy
property float x_axisz
property float y_axisx
property float y_axisy
property float y_axisz
property float z_axisx
property float z_axisy
property float z_axisz
property float focal
property float scalex
property float scaley
property float centerx
property float centery
property int viewportx
property int viewporty
property float k1
property float k2
end_header
15.515984 -0.7485013 -70.978134 0 0 0
15.750656 -0.278292 -70.978134 0 0 0
15.664988 -0.67229706 -70.258904 0 0 0
15.449893 -1.0408548 -70.396378 0 0 0
17.130316 -4.6271586 -70.599243 0 0 0
16.752865 -4.3370166 -70.141663 0 0 0
16.471233 -4.2048769 -70.865631 0 0 0
17.701994 -4.8186145 -70.378128 0 0 0
18.376993 -4.9170027 -70.52813 0 0 0
16.022974 -3.7710805 -70.678131 0 0 0
19.089493 -4.8527613 -70.753128 0 0 0
19.731129 -4.6789551 -70.565628 0 0 0
20.292969 -4.3658681 -70.52813 0 0 0
20.742088 -3.9268827 -70.308319 0 0 0
21.06448 -3.6196861 -70.828133 0 0 0
20.454365 -4.2079582 -70.978134 0 0 0
21.433563 -2.9605775 -70.453125 0 0 0
16.236652 0.18443085 -70.904465 0 0 0
16.025654 -0.54695803 -72.550911 0 0 0
20.858185 -3.2863517 -72.188446 0 0 0
15.762407 -0.4608804 -71.909134 0 0 0
15.771976 -0.26493937 -71.503128 0 0 0
20.678406 -3.869648 -71.599899 0 0 0
17.183886 -0.41096908 -73.541397 0 0 0
17.923855 -0.57340705 -73.772903 0 0 0
18.674862 -0.35607693 -73.666702 0 0 0
19.051994 -0.43515396 -73.64798 0 0 0
16.491142 -0.41974682 -73.091927 0 0 0
16.807209 -0.85799223 -73.514816 0 0 0
15.741812 -3.3304012 -70.753128 0 0 0
15.593145 -2.9851542 -70.453125 0 0 0
15.465631 -2.3787901 -70.160004 0 0 0
15.340349 -1.935154 -70.678131 0 0 0
15.384411 -1.5976541 -70.272156 0 0 0
17.14349 0.8358568 -70.52813 0 0 0
17.902626 1.3280079 -70.52813 0 0 0
18.488291 1.9131134 -70.52813 0 0 0
18.816786 2.564846 -70.52813 0 0 0
16.124458 -0.29824567 -70.077347 0 0 0
20.501534 -3.8730216 -69.520706 0 0 0
16.509178 -0.48322701 -69.179153 0 0 0
21.036049 -2.9785175 -69.253128 0 0 0
20.693665 -2.6872981 -68.637726 0 0 0
20.759731 -0.90942347 -68.70546 0 0 0
20.692242 -0.3011854 -68.702568 0 0 0
21.151993 -0.58515394 -68.874268 0 0 0
17.112301 -0.55650485 -68.542938 0 0 0
17.700399 -0.41076019 -68.430313 0 0 0
20.746658 -2.0851541 -68.530731 0 0 0
20.750813 -1.560154 -68.528702 0 0 0
20.251993 -0.43515396 -68.568802 0 0 0
20.503592 0.31397134 -68.660713 0 0 0
18.414461 -0.22600737 -68.471817 0 0 0
18.973869 -0.73030591 -68.168991 0 0 0
19.651993 -0.43515396 -68.439362 0 0 0
16.915661 -0.11959241 -73.238617 0 0 0
17.271923 0.0051377416 -73.318497 0 0 0
17.09626 -4.570879 -71.262405 0 0 0
16.630104 0.18145701 -72.704056 0 0 0
17.617613 0.74480057 -72.750549 0 0 0
17.751724 0.083481371 -73.390984 0 0 0
18.301994 0.041845664 -73.483292 0 0 0
18.344973 0.60167015 -73.071548 0 0 0
17.701994 -4.8161821 -71.053131 0 0 0
18.301994 -4.8822279 -71.203133 0 0 0
18.751993 0.37303901 -73.242813 0 0 0
19.126993 -4.8101797 -71.27813 0 0 0
19.891163 -4.5106339 -71.351852 0 0 0
21.167206 -3.2795763 -71.471947 0 0 0
21.400164 -3.0354342 -70.978134 0 0 0
21.514296 -2.8351541 -70.978134 0 0 0
15.953288 -2.9336247 -72.246536 0 0 0
16.07667 -2.7057343 -72.606911 0 0 0
16.014164 -2.010154 -72.78698 0 0 0
15.661755 -2.0851541 -72.185257 0 0 0
15.695795 -1.485154 -72.343903 0 0 0
16.046774 -1.1476541 -72.847916 0 0 0
15.676794 -0.99765396 -72.123276 0 0 0
17.10095 -4.2189941 -72.157356 0 0 0
17.177811 -3.7502546 -72.788429 0 0 0
17.697189 -4.4545269 -72.195145 0 0 0
18.001343 -3.8308783 -73.073051 0 0 0
18.29821 -4.4449334 -72.384926 0 0 0
18.569534 -4.0452852 -72.920532 0 0 0
16.553684 -3.5714185 -72.456581 0 0 0
16.651993 -3.1708388 -72.928131 0 0 0
16.48612 -2.4619229 -73.142601 0 0 0
18.850052 -4.4625244 -72.340332 0 0 0
19.168554 -3.9438343 -72.838455 0 0 0
19.842436 -3.9197583 -72.511642 0 0 0
19.965681 -3.4457059 -72.928131 0 0 0
20.381876 -3.2413192 -72.750732 0 0 0
20.427034 -3.7582774 -72.198608 0 0 0
20.531487 -2.7653627 -72.908691 0 0 0
16.00857 -3.3794785 -71.861374 0 0 0
15.704517 -3.021621 -71.559341 0 0 0
16.057758 -3.7185183 -71.307472 0 0 0
15.434464 -2.4638772 -70.976753 0 0 0
15.503722 -2.3922126 -71.591461 0 0 0
15.405348 -1.8601539 -71.465622 0 0 0
15.349903 -1.485154 -70.978134 0 0 0
15.522679 -0.96479332 -71.567108 0 0 0
16.463726 -3.9177113 -71.86969 0 0 0
16.522259 -4.1704736 -71.41069 0 0 0
17.402714 -4.5765982 -71.727409 0 0 0
18.001993 -4.7423515 -71.728127 0 0 0
18.601994 -4.7690043 -71.728127 0 0 0
19.209499 -4.6298928 -71.873184 0 0 0
20.02454 -4.2184415 -71.870956 0 0 0
21.094852 -3.0881302 -71.953125 0 0 0
16.050163 -0.090304434 -72.154816 0 0 0
17.09152 0.93899667 -72.190453 0 0 0
17.941158 1.3484949 -72.06102 0 0 0
18.43626 1.2315488 -72.501923 0 0 0
16.213654 0.31677675 -71.428131 0 0 0
16.355877 0.45029542 -71.913727 0 0 0
16.649933 0.7740199 -71.851151 0 0 0
16.657715 0.76065516 -71.439178 0 0 0
16.894209 0.8266927 -71.206367 0 0 0
16.951994 0.98892236 -71.728127 0 0 0
17.635841 1.3070955 -71.728127 0 0 0
17.683758 -3.0528746 -73.542526 0 0 0
17.118332 -2.5488915 -73.547318 0 0 0
17.993069 -2.4585447 -73.841545 0 0 0
18.301994 -3.2500954 -73.521248 0 0 0
18.814915 -2.900959 -73.638206 0 0 0
19.38121 -2.6950698 -73.610764 0 0 0
17.482946 -2.2024984 -73.808426 0 0 0
16.824184 -1.7101541 -73.577988 0 0 0
18.826994 -2.010154 -73.922012 0 0 0
18.001993 -1.785154 -73.980804 0 0 0
17.402779 -1.635154 -73.880524 0 0 0
18.601994 -1.260154 -73.946075 0 0 0
17.320343 -0.95551074 -73.772018 0 0 0
18.001993 -1.185154 -73.951614 0 0 0
19.509853 -2.1635056 -73.724358 0 0 0
20.077728 -2.6591177 -73.284241 0 0 0
19.193644 -1.4777744 -73.863449 0 0 0
20.113308 -2.147665 -73.438438 0 0 0
19.206779 -0.95473921 -73.775604 0 0 0
17.252172 -3.2490704 -73.247879 0 0 0
18.639492 -3.5786672 -73.278122 0 0 0
19.423037 -3.2851539 -73.288727 0 0 0
16.363283 -1.7998033 -73.217804 0 0 0
16.384748 -0.96015394 -73.199776 0 0 0
18.463356 1.6445069 -72.012321 0 0 0
18.281231 1.6790664 -71.667542 0 0 0
18.616219 1.9648461 -71.878128 0 0 0
17.851994 1.3752171 -71.024796 0 0 0
18.451994 1.9670416 -71.032883 0 0 0
16.058508 -3.7187195 -70.046524 0 0 0
15.711395 -3.0697808 -70.003128 0 0 0
15.500058 -1.7860405 -69.77813 0 0 0
15.588797 -1.185154 -69.703125 0 0 0
16.356922 -4.0232315 -70.043144 0 0 0
17.436934 -4.652298 -69.928131 0 0 0
17.798359 -4.6892214 -69.744759 0 0 0
18.301994 -4.8363776 -70.078125 0 0 0
19.014492 -4.8017292 -70.153122 0 0 0
19.570684 -4.5666475 -69.763252 0 0 0
20.09481 -4.4274974 -70.060333 0 0 0
21.166935 -3.2656248 -69.928131 0 0 0
21.404831 -2.7279563 -69.918579 0 0 0
21.584616 -2.3851542 -70.078125 0 0 0
16.641747 0.19091746 -69.907158 0 0 0
15.90564 -3.0350683 -69.473137 0 0 0
15.67979 -2.3701177 -69.47374 0 0 0
15.74682 -1.785154 -69.201141 0 0 0
15.782513 -1.2103925 -69.250664 0 0 0
15.751993 -0.83874714 -69.628128 0 0 0
16.002752 -0.69898868 -69.481461 0 0 0
16.872282 -4.1773372 -69.500359 0 0 0
18.796896 -4.6041069 -69.500671 0 0 0
17.68791 -4.3496017 -69.114037 0 0 0
16.318476 -3.7144494 -69.49353 0 0 0
19.31398 -4.3282275 -69.094894 0 0 0
19.970413 -4.2381339 -69.391098 0 0 0
21.462637 -2.0609319 -69.608376 0 0 0
21.166733 -2.3851542 -69.167709 0 0 0
21.21925 -1.8601539 -69.184662 0 0 0
21.427544 -1.506622 -69.342293 0 0 0
16.031555 -2.668364 -69.010117 0 0 0
16.011021 -1.860154 -68.811958 0 0 0
16.260036 -0.99598527 -68.784653 0 0 0
16.212593 -1.3487384 -68.595291 0 0 0
17.127258 -3.8954921 -68.861771 0 0 0
17.713921 -3.9018321 -68.559425 0 0 0
18.414494 -4.2740965 -68.858376 0 0 0
16.504707 -3.4898193 -69.023705 0 0 0
16.783579 -3.2834144 -68.596107 0 0 0
18.901993 -4.1396236 -68.697891 0 0 0
19.520023 -4.011517 -68.748123 0 0 0
20.425085 -3.4492033 -68.85733 0 0 0
19.982864 -3.7457342 -68.717651 0 0 0
16.467607 -2.6797602 -68.541245 0 0 0
21.162338 -1.185154 -69.017761 0 0 0
18.226994 -3.9081333 -68.444427 0 0 0
17.20989 -3.4518211 -68.416397 0 0 0
17.465723 -2.9961443 -68.063873 0 0 0
16.951229 -2.6866665 -68.179985 0 0 0
18.018606 -3.2819562 -68.041428 0 0 0
18.864494 -3.8211622 -68.384384 0 0 0
18.674553 -3.4624703 -68.110413 0 0 0
19.645245 -3.5691385 -68.407028 0 0 0
19.578995 -3.1222539 -68.109863 0 0 0
20.239208 -2.9851542 -68.361771 0 0 0
16.366659 -2.0879145 -68.44191 0 0 0
16.79364 -2.0851541 -68.114166 0 0 0
16.326702 -1.635154 -68.428131 0 0 0
16.801994 -1.635154 -68.048622 0 0 0
16.819046 -1.3351541 -68.064445 0 0 0
17.101917 -0.98997384 -68.089752 0 0 0
20.09314 -2.4017284 -68.049133 0 0 0
20.287743 -1.785154 -68.103447 0 0 0
20.381079 -1.2707967 -68.290108 0 0 0
19.994892 -0.98839945 -68.253433 0 0 0
20.169321 0.98984611 -68.70401 0 0 0
17.988869 -2.7044163 -67.811188 0 0 0
18.672642 -3.0002999 -67.873497 0 0 0
19.416813 -2.5182648 -67.816467 0 0 0
17.325363 -2.1590543 -67.85228 0 0 0
17.38588 -1.7101541 -67.773392 0 0 0
18.226994 -2.010154 -67.655495 0 0 0
18.676994 -2.3851542 -67.687584 0 0 0
18.001993 -1.635154 -67.667923 0 0 0
18.612551 -1.4635612 -67.725899 0 0 0
17.401993 -1.3398091 -67.796417 0 0 0
17.551994 -1.0855523 -67.858559 0 0 0
18.001993 -1.202801 -67.790314 0 0 0
19.126993 -1.935154 -67.669151 0 0 0
19.765688 -1.935154 -67.816376 0 0 0
19.426994 -1.5229185 -67.793198 0 0 0
19.829702 -1.635154 -67.859741 0 0 0
17.295015 0.75446272 -69.957581 0 0 0
17.136833 0.20928638 -69.284744 0 0 0
18.084555 0.74623549 -69.357971 0 0 0
17.851994 1.032854 -69.928131 0 0 0
18.415394 1.4015853 -69.841766 0 0 0
18.777845 1.9648461 -69.928131 0 0 0
18.994911 1.4051263 -69.308899 0 0 0
19.157135 1.9648461 -69.438843 0 0 0
19.051994 0.49512345 -68.831726 0 0 0
19.651993 0.37934923 -68.712967 0 0 0
19.651993 1.3648461 -68.913971 0 0 0
19.651993 1.9648461 -69.001808 0 0 0
0 0 0 1 0 0 0 1 0 0 0 1 0 0 0 0 0 245 1 0 0
