ply
format ascii 1.0
comment PCL generated
element vertex 257
property float x
property float y
property float z
property uchar red
property uchar green
property uchar blue
element camera 1
property float view_px
property float view_py
property float view_pz
property float x_axisx
property float x_axisy
property float x_axisz
property float y_axisx
property float y_axisy
property float y_axisz
property float z_axisx
property float z_axisy
property float z_axisz
property float focal
property float scalex
property float scaley
property float centerx
property float centery
property int viewportx
property int viewporty
property float k1
property float k2
end_header
-48.518291 -38.536282 -43.333649 0 0 0
-48.626457 -38.985153 -42.928131 0 0 0
-54.235371 -38.872654 -45.961533 0 0 0
-53.644653 -38.685158 -46.657852 0 0 0
-49.345901 -38.664543 -46.508915 0 0 0
-48.950031 -38.685158 -46.04528 0 0 0
-48.374878 -39.210152 -44.72813 0 0 0
-48.357445 -39.210152 -44.16563 0 0 0
-52.40551 -38.835155 -41.153862 0 0 0
-52.048008 -38.715157 -41.308708 0 0 0
-51.547546 -38.985153 -41.215332 0 0 0
-50.698009 -38.835155 -41.237213 0 0 0
-50.122238 -38.835155 -41.392063 0 0 0
-49.454132 -38.910156 -41.840019 0 0 0
-53.040001 -38.760155 -47.105408 0 0 0
-52.64801 -38.985153 -47.326954 0 0 0
-52.207024 -38.455727 -47.354515 0 0 0
-51.598007 -39.060154 -47.462196 0 0 0
-51.26487 -38.469429 -47.357517 0 0 0
-50.40683 -38.465073 -47.167721 0 0 0
-49.008125 -38.985153 -42.277122 0 0 0
-54.5867 -38.985153 -45.328129 0 0 0
-48.543938 -39.116402 -45.334946 0 0 0
-49.821102 -38.760155 -46.880692 0 0 0
-52.514931 -39.060154 -41.070473 0 0 0
-54.748009 -38.835155 -45.047783 0 0 0
-48.447239 -38.486076 -44.804634 0 0 0
-51.675446 -42.184738 -43.85759 0 0 0
-52.048008 -42.058159 -43.378128 0 0 0
-51.435539 -42.068596 -43.300301 0 0 0
-52.048008 -41.806553 -42.743858 0 0 0
-51.373009 -41.866928 -42.805782 0 0 0
-50.816589 -42.072998 -43.721989 0 0 0
-50.581223 -41.816277 -43.008934 0 0 0
-50.161121 -41.885231 -43.71563 0 0 0
-49.831062 -41.539509 -43.155464 0 0 0
-49.478043 -41.40522 -43.674107 0 0 0
-49.117439 -40.639412 -42.990894 0 0 0
-49.754883 -41.255653 -42.737507 0 0 0
-48.827362 -40.61692 -43.858551 0 0 0
-48.777634 -40.335155 -43.355835 0 0 0
-48.69812 -39.827263 -43.09671 0 0 0
-48.523144 -39.884712 -43.678131 0 0 0
-48.417061 -39.353386 -43.670448 0 0 0
-53.230934 -41.278782 -45.743649 0 0 0
-52.954327 -41.111992 -46.177528 0 0 0
-52.49218 -41.482834 -46.008484 0 0 0
-52.50808 -41.000748 -46.551678 0 0 0
-51.675354 -41.544701 -46.218063 0 0 0
-51.869591 -41.094383 -46.68763 0 0 0
-52.064507 -41.828552 -45.594711 0 0 0
-50.976891 -41.565231 -46.142311 0 0 0
-51.448009 -41.127796 -46.718845 0 0 0
-51.000351 -41.082882 -46.672741 0 0 0
-51.223011 -41.905449 -45.569809 0 0 0
-53.754539 -40.424873 -46.063313 0 0 0
-53.687424 -40.774582 -45.846607 0 0 0
-54.122478 -39.672089 -46.014725 0 0 0
-53.72464 -39.877831 -46.406204 0 0 0
-53.651794 -39.285156 -46.638512 0 0 0
-53.199402 -40.520607 -46.509155 0 0 0
-50.425121 -41.102943 -46.395599 0 0 0
-50.022591 -41.48444 -45.576637 0 0 0
-49.719967 -40.861916 -46.078129 0 0 0
-49.964081 -40.600601 -46.516502 0 0 0
-49.50502 -40.162582 -46.398727 0 0 0
-49.092361 -40.345787 -45.760193 0 0 0
-54.464634 -37.874031 -43.453129 0 0 0
-49.369148 -39.530884 -46.502842 0 0 0
-48.978531 -39.510155 -46.047291 0 0 0
-54.017612 -37.462769 -43.502083 0 0 0
-54.137108 -37.635155 -43.270882 0 0 0
-53.660469 -37.309681 -43.22813 0 0 0
-53.568687 -36.869392 -43.668175 0 0 0
-53.428471 -37.403175 -42.81752 0 0 0
-53.01627 -36.970776 -43.206856 0 0 0
-52.331486 -36.65358 -43.334011 0 0 0
-48.732094 -37.769203 -43.451561 0 0 0
-48.802139 -38.223793 -42.786293 0 0 0
-49.052658 -37.448326 -42.996277 0 0 0
-50.69532 -36.5093 -43.129181 0 0 0
-50.235672 -36.355057 -43.378128 0 0 0
-49.948009 -36.480293 -43.363602 0 0 0
-50.248009 -36.684113 -42.867722 0 0 0
-49.915768 -36.72702 -42.915894 0 0 0
-49.503551 -36.930531 -43.064541 0 0 0
-49.030602 -37.166138 -43.753128 0 0 0
-49.367378 -36.832718 -43.60313 0 0 0
-51.337341 -36.218079 -43.685913 0 0 0
-50.698009 -36.173126 -43.659924 0 0 0
-54.14069 -38.062111 -45.885189 0 0 0
-53.581177 -38.08654 -46.567577 0 0 0
-53.742157 -37.552437 -46.077919 0 0 0
-53.715637 -37.171562 -45.724213 0 0 0
-53.06813 -37.167923 -46.397903 0 0 0
-52.498009 -37.009056 -46.556999 0 0 0
-53.120678 -36.766094 -45.863506 0 0 0
-52.692978 -36.546814 -45.840164 0 0 0
-52.189911 -36.326172 -45.758881 0 0 0
-51.823006 -36.57349 -46.233311 0 0 0
-51.373009 -36.775444 -46.486576 0 0 0
-50.916756 -36.468811 -46.002617 0 0 0
-49.653641 -38.151123 -46.618259 0 0 0
-49.113289 -38.170113 -46.089668 0 0 0
-49.777 -37.645916 -46.495621 0 0 0
-49.508595 -37.530273 -46.170883 0 0 0
-50.478027 -36.904766 -46.349972 0 0 0
-50.427402 -37.485802 -46.783878 0 0 0
-49.960487 -37.035156 -46.218704 0 0 0
-50.111404 -36.706501 -45.912575 0 0 0
-49.076656 -37.488144 -45.504196 0 0 0
-49.595959 -36.978104 -45.697388 0 0 0
-52.64801 -41.939877 -44.878128 0 0 0
-52.174435 -42.073368 -44.683823 0 0 0
-52.348011 -42.115582 -43.978127 0 0 0
-51.923119 -42.181679 -44.203129 0 0 0
-51.448009 -42.152489 -44.856037 0 0 0
-51.448009 -42.223576 -44.428127 0 0 0
-51.0564 -42.117825 -44.829006 0 0 0
-50.78331 -42.103577 -44.503128 0 0 0
-50.000656 -41.766308 -44.878128 0 0 0
-50.111767 -41.889095 -44.27813 0 0 0
-49.604179 -41.569901 -44.353127 0 0 0
-49.498299 -41.388348 -44.913757 0 0 0
-49.151417 -41.137726 -44.27813 0 0 0
-49.013969 -40.849648 -44.902344 0 0 0
-48.713875 -40.457661 -44.578129 0 0 0
-48.528713 -39.885155 -44.876251 0 0 0
-48.447086 -39.837612 -44.27813 0 0 0
-52.36689 -40.475586 -41.518932 0 0 0
-52.337799 -41.085155 -41.787102 0 0 0
-52.048008 -40.821114 -41.753365 0 0 0
-51.598007 -40.759495 -41.68594 0 0 0
-50.998009 -40.789215 -41.723022 0 0 0
-52.048008 -39.94313 -41.333282 0 0 0
-51.33551 -39.948044 -41.303627 0 0 0
-52.208519 -39.510155 -41.189709 0 0 0
-51.606472 -39.434189 -41.146397 0 0 0
-52.048008 -39.135155 -41.202217 0 0 0
-50.968048 -39.128441 -41.136497 0 0 0
-50.239182 -40.379204 -41.722054 0 0 0
-50.702614 -39.622658 -41.264736 0 0 0
-51.113762 -39.435154 -41.12458 0 0 0
-50.027412 -39.495987 -41.526386 0 0 0
-50.39801 -39.135155 -41.264877 0 0 0
-54.730686 -38.389259 -44.56543 0 0 0
-54.613373 -38.385155 -44.878128 0 0 0
-54.469322 -37.82933 -44.503128 0 0 0
-54.509819 -37.935154 -43.978127 0 0 0
-54.378098 -37.733459 -43.978127 0 0 0
-53.945763 -36.975182 -44.65313 0 0 0
-54.013908 -37.186394 -44.055748 0 0 0
-53.42675 -36.48259 -44.578129 0 0 0
-53.617886 -36.671093 -44.128128 0 0 0
-53.257343 -36.468956 -43.939423 0 0 0
-52.598412 -36.090919 -44.578129 0 0 0
-52.807625 -36.17955 -44.108826 0 0 0
-52.198009 -36.025337 -44.128128 0 0 0
-51.823009 -35.923904 -44.578129 0 0 0
-51.52301 -35.997501 -44.128128 0 0 0
-51.298012 -35.930763 -44.578129 0 0 0
-49.046707 -37.182358 -44.878128 0 0 0
-48.786682 -37.452202 -44.240627 0 0 0
-48.688599 -37.778854 -44.940639 0 0 0
-49.198009 -36.915718 -44.353127 0 0 0
-49.528175 -36.687515 -44.878128 0 0 0
-49.856216 -36.398991 -44.503128 0 0 0
-48.414764 -38.391716 -43.993462 0 0 0
-48.546677 -37.935154 -44.353127 0 0 0
-50.848011 -35.987835 -44.578129 0 0 0
-50.379295 -36.175262 -44.878128 0 0 0
-50.484734 -36.086594 -44.240627 0 0 0
-50.848011 -36.019791 -44.128128 0 0 0
-52.957748 -39.995155 -46.922722 0 0 0
-52.330757 -40.539436 -46.970062 0 0 0
-52.198009 -40.035156 -47.268684 0 0 0
-51.598007 -40.535366 -47.143593 0 0 0
-51.89801 -39.60144 -47.427177 0 0 0
-51.304741 -39.839859 -47.347984 0 0 0
-51.008801 -40.49548 -47.063011 0 0 0
-53.097591 -39.433357 -47.031761 0 0 0
-52.64801 -39.435154 -47.297142 0 0 0
-52.245094 -39.285156 -47.432816 0 0 0
-50.922256 -39.147682 -47.368801 0 0 0
-50.632927 -39.821209 -47.190796 0 0 0
-50.22966 -39.255615 -47.123863 0 0 0
-50.961044 -38.266838 -41.548004 0 0 0
-50.397133 -38.515816 -41.41745 0 0 0
-49.861862 -38.380547 -41.663155 0 0 0
-50.037109 -37.746918 -41.979256 0 0 0
-49.494869 -38.474434 -41.869606 0 0 0
-52.78989 -38.31752 -47.184376 0 0 0
-52.434132 -37.937576 -47.15414 0 0 0
-51.598007 -37.935154 -47.260098 0 0 0
-51.598007 -37.28952 -46.915276 0 0 0
-50.99382 -37.867256 -47.160843 0 0 0
-52.069214 -41.385155 -42.178131 0 0 0
-51.647049 -41.535156 -42.309975 0 0 0
-50.483063 -41.586441 -42.626343 0 0 0
-50.964058 -41.526241 -42.333122 0 0 0
-50.389938 -41.124207 -42.137909 0 0 0
-49.895203 -40.810753 -42.157394 0 0 0
-49.550591 -40.740051 -42.427536 0 0 0
-49.170109 -39.973774 -42.38409 0 0 0
-48.775349 -39.285156 -42.657951 0 0 0
-49.042511 -38.405106 -42.312057 0 0 0
-49.189064 -37.797981 -42.456799 0 0 0
-50.46051 -37.17387 -42.356907 0 0 0
-49.826752 -37.02317 -42.617268 0 0 0
-49.360764 -37.341381 -42.634911 0 0 0
-49.626778 -37.709923 -42.139694 0 0 0
-53.506973 -41.206154 -45.571468 0 0 0
-53.248009 -41.550659 -45.328129 0 0 0
-52.948009 -41.768349 -45.178131 0 0 0
-51.598007 -42.007324 -45.328129 0 0 0
-53.883041 -40.935154 -45.627701 0 0 0
-54.14801 -40.335155 -45.708542 0 0 0
-54.413399 -39.885155 -45.612755 0 0 0
-54.748009 -39.254986 -45.297211 0 0 0
-54.448009 -39.435154 -45.588902 0 0 0
-50.589058 -41.826206 -45.399677 0 0 0
-49.479347 -41.108646 -45.460457 0 0 0
-48.764286 -40.216709 -45.272964 0 0 0
-48.668549 -39.66431 -45.492462 0 0 0
-54.410339 -38.385155 -45.542393 0 0 0
-54.451885 -38.076748 -45.185581 0 0 0
-54.157379 -37.562134 -45.378654 0 0 0
-53.718521 -36.857582 -45.178131 0 0 0
-53.110161 -36.419296 -45.178131 0 0 0
-52.26767 -36.073906 -45.090488 0 0 0
-51.598007 -36.104042 -45.453224 0 0 0
-50.994183 -36.157406 -45.462074 0 0 0
-48.747131 -38.168961 -45.480408 0 0 0
-50.265968 -36.368786 -45.36834 0 0 0
-52.582485 -36.261623 -43.841297 0 0 0
-49.838364 -36.421127 -43.828129 0 0 0
-50.376053 -36.166023 -43.819332 0 0 0
-50.39801 -40.497452 -46.832638 0 0 0
-50.098007 -40.019581 -46.89534 0 0 0
-49.795128 -39.585155 -46.82975 0 0 0
-53.059776 -37.602772 -46.816441 0 0 0
-52.261765 -37.272335 -46.849739 0 0 0
-51.14801 -37.148869 -46.792274 0 0 0
-50.248009 -37.935154 -46.976948 0 0 0
-51.315712 -41.23011 -42.014416 0 0 0
-49.623451 -40.185158 -41.99794 0 0 0
-49.336235 -39.571228 -42.011616 0 0 0
-51.598007 -35.961098 -45.02813 0 0 0
-50.998009 -36.008278 -45.02813 0 0 0
-52.348011 -38.235157 -41.485371 0 0 0
-52.348011 -37.964989 -41.728127 0 0 0
-51.748009 -38.112297 -41.64962 0 0 0
-52.948009 -37.591331 -42.246231 0 0 0
-52.348011 -37.54353 -42.211853 0 0 0
-51.748009 -37.472664 -42.166901 0 0 0
-51.14801 -37.635155 -41.899883 0 0 0
-51.14801 -37.0942 -42.405243 0 0 0
0 0 0 1 0 0 0 1 0 0 0 1 0 0 0 0 0 257 1 0 0
