ply
format ascii 1.0
comment PCL generated
element vertex 382
property float x
property float y
property float z
property uchar red
property uchar green
property uchar blue
element camera 1
property float view_px
property float view_py
property float view_pz
property float x_axisx
property float x_axisy
property float x_axisz
property float y_axisx
property float y_axisy
property float y_axisz
property float z_axisx
property float z_axisy
property float z_axisz
property float focal
property float scalex
property float scaley
property float centerx
property float centery
property int viewportx
property int viewporty
property float k1
property float k2
end_header
73.626617 -56.896484 6.1820517 0 0 0
72.783882 -57.222855 6.5656071 0 0 0
72.87384 -56.351051 6.2565227 0 0 0
72.649269 -55.316406 6.2597437 0 0 0
72.683151 -54.579826 6.3247004 0 0 0
72.795303 -53.814396 6.4916186 0 0 0
73.459145 -53.228325 6.4658289 0 0 0
75.149918 -57.588017 6.3900414 0 0 0
74.326996 -57.273472 6.227756 0 0 0
75.334396 -57.051941 6.1974974 0 0 0
76.322357 -56.660988 6.2830753 0 0 0
76.816269 -56.077126 6.3240676 0 0 0
74.210403 -53.465809 6.1789246 0 0 0
74.870743 -52.848595 6.4358664 0 0 0
70.551514 -57.848866 10.08934 0 0 0
78.33017 -58.517284 9.8450661 0 0 0
78.609436 -58.310837 10.546874 0 0 0
71.01799 -57.859665 8.5554752 0 0 0
71.718887 -58.473629 8.2659445 0 0 0
77.851997 -58.035156 8.1016588 0 0 0
78.318878 -57.631069 8.3291187 0 0 0
73.284477 -57.889397 6.715662 0 0 0
74.28949 -57.903522 6.5326242 0 0 0
74.908249 -58.437881 6.9230909 0 0 0
75.614937 -58.370941 7.0131183 0 0 0
71.892456 -57.723938 13.677576 0 0 0
72.601295 -57.733055 14.222406 0 0 0
76.805954 -58.256683 13.953272 0 0 0
77.622589 -57.921375 13.57378 0 0 0
78.440506 -56.806194 13.471874 0 0 0
78.592682 -56.122658 13.50866 0 0 0
78.273064 -55.035156 13.904231 0 0 0
78.540054 -54.456833 13.40337 0 0 0
71.124474 -58.070786 12.263331 0 0 0
78.556343 -58.166344 11.832838 0 0 0
78.309929 -57.991173 12.658291 0 0 0
78.841537 -57.693291 9.5214996 0 0 0
73.317856 -58.168896 14.389702 0 0 0
73.783241 -58.185738 14.519383 0 0 0
75.310043 -57.87822 14.746842 0 0 0
75.970276 -58.026382 14.503255 0 0 0
71.778 -57.782581 7.543231 0 0 0
72.508499 -57.686035 6.933773 0 0 0
76.307487 -57.625374 6.7034836 0 0 0
76.999687 -58.033104 7.3578434 0 0 0
70.725609 -58.018166 11.257113 0 0 0
78.614838 -58.261715 11.195799 0 0 0
70.771866 -58.026855 9.3957787 0 0 0
78.224121 -58.393234 9.1969461 0 0 0
78.411194 -57.43185 13.074814 0 0 0
78.451996 -53.235157 12.806515 0 0 0
71.475204 -57.878448 13.157576 0 0 0
77.520218 -57.515846 7.3954601 0 0 0
74.364494 -58.479019 14.389093 0 0 0
78.279053 -53.835155 13.296074 0 0 0
78.451996 -53.535156 12.876245 0 0 0
73.513283 -55.760036 5.9842567 0 0 0
73.812645 -54.917496 5.9246588 0 0 0
73.693329 -54.063644 6.0867519 0 0 0
74.739502 -56.49229 5.9765162 0 0 0
74.28949 -55.897659 5.8751984 0 0 0
75.076996 -55.785156 5.844449 0 0 0
75.81041 -56.140373 6.0194449 0 0 0
74.739494 -55.110153 5.8072805 0 0 0
74.509842 -54.325485 5.8968945 0 0 0
75.644012 -55.020576 5.883625 0 0 0
75.517288 -54.284931 5.9447012 0 0 0
75.114502 -53.5476 6.118103 0 0 0
71.156219 -58.696281 10.134374 0 0 0
70.994583 -58.519276 10.621874 0 0 0
71.676971 -59.178116 10.321874 0 0 0
72.499786 -59.69017 10.13989 0 0 0
72.389877 -59.633018 10.763433 0 0 0
73.269653 -59.996758 10.021574 0 0 0
74.439499 -60.093838 9.5107327 0 0 0
74.514496 -60.221977 10.246874 0 0 0
73.951996 -60.196499 10.621874 0 0 0
75.264496 -60.215103 10.490623 0 0 0
75.151993 -60.143898 9.7571535 0 0 0
75.78862 -60.092583 10.125905 0 0 0
76.205063 -59.907013 9.6468735 0 0 0
76.547882 -59.895287 10.530109 0 0 0
76.60141 -59.663742 9.434927 0 0 0
77.479019 -59.292099 10.142525 0 0 0
78.024925 -58.925114 10.846874 0 0 0
71.237617 -58.414085 8.9177208 0 0 0
72.322128 -59.343296 8.9660168 0 0 0
72.60717 -59.09446 8.2111492 0 0 0
73.436821 -59.517334 8.3519135 0 0 0
73.167297 -59.091816 7.8541389 0 0 0
73.002045 -59.685753 9.0691624 0 0 0
73.876266 -59.277351 7.8471975 0 0 0
73.868408 -59.827606 8.8341045 0 0 0
71.673454 -58.811127 8.8417501 0 0 0
72.214943 -58.802567 8.1361837 0 0 0
74.176994 -59.573597 8.2487431 0 0 0
75.001999 -59.584793 8.2423096 0 0 0
74.964493 -59.951393 9.0556707 0 0 0
75.601997 -59.52047 8.2804747 0 0 0
75.834213 -59.843601 9.1052446 0 0 0
75.295609 -59.097839 7.6194286 0 0 0
76.217041 -59.046234 7.930274 0 0 0
76.17347 -59.534615 8.629859 0 0 0
76.837662 -59.040901 8.4172707 0 0 0
77.06427 -58.545364 7.9091139 0 0 0
77.799202 -58.507782 8.6385231 0 0 0
73.601265 -58.532974 7.1213741 0 0 0
74.326996 -58.534756 6.9798613 0 0 0
71.034119 -56.365334 13.389404 0 0 0
71.359016 -55.90844 13.884155 0 0 0
70.936539 -55.516502 13.471874 0 0 0
71.821457 -56.598026 14.142234 0 0 0
71.236832 -55.16127 13.783613 0 0 0
70.934044 -54.660156 13.341881 0 0 0
71.616776 -54.499851 13.950027 0 0 0
71.405914 -53.839798 13.468359 0 0 0
72.031601 -55.415123 14.441282 0 0 0
72.252472 -54.135155 14.335842 0 0 0
72.382629 -53.717056 14.144665 0 0 0
71.746201 -53.221764 13.283218 0 0 0
77.063217 -57.598465 14.248541 0 0 0
77.895782 -56.95417 13.937279 0 0 0
78.198547 -55.860157 13.985462 0 0 0
78.087219 -54.266052 13.866798 0 0 0
77.132919 -53.352951 14.122248 0 0 0
77.523239 -53.262691 13.554722 0 0 0
77.719856 -53.811714 13.955515 0 0 0
70.336029 -57.149254 11.514156 0 0 0
70.539627 -57.191414 12.094416 0 0 0
74.390724 -56.724834 15.208777 0 0 0
74.626999 -55.935158 15.353592 0 0 0
73.57016 -55.931351 15.196537 0 0 0
75.665741 -52.647171 13.851865 0 0 0
73.617569 -55.185158 15.207757 0 0 0
76.051994 -52.706501 14.071874 0 0 0
75.933052 -52.450333 13.398202 0 0 0
75.142059 -55.206078 15.315629 0 0 0
75.373077 -56.385551 15.259047 0 0 0
70.198715 -56.385155 11.821874 0 0 0
76.386536 -52.677658 13.930075 0 0 0
76.651993 -52.650692 13.647595 0 0 0
70.484367 -56.281666 12.526538 0 0 0
75.478851 -55.785156 15.30232 0 0 0
76.82869 -52.893356 13.947052 0 0 0
70.03157 -55.710155 11.498644 0 0 0
70.267868 -55.166405 12.255279 0 0 0
74.401993 -55.185158 15.335627 0 0 0
74.091263 -54.581619 15.227975 0 0 0
70.114204 -54.550159 11.639776 0 0 0
76.951996 -52.756355 13.471874 0 0 0
74.701996 -54.345215 15.202713 0 0 0
70.397224 -54.216988 12.356905 0 0 0
70.414322 -53.539719 11.717014 0 0 0
70.639587 -53.363075 12.133337 0 0 0
71.148102 -53.085335 12.464649 0 0 0
70.635376 -52.934048 11.296873 0 0 0
70.897568 -52.823975 11.663136 0 0 0
71.379929 -52.52079 11.714058 0 0 0
72.071877 -52.0224 12.039129 0 0 0
72.275925 -52.115364 12.391738 0 0 0
71.944344 -51.750168 11.220005 0 0 0
72.46167 -51.356911 11.402494 0 0 0
77.064499 -51.649361 12.375383 0 0 0
70.340897 -57.442863 10.689772 0 0 0
70.20282 -57.135155 10.021873 0 0 0
70.145393 -56.482059 9.3795033 0 0 0
69.99736 -56.381237 10.471874 0 0 0
69.976952 -56.010159 9.7968731 0 0 0
69.923462 -55.353905 10.0875 0 0 0
69.934082 -54.922657 10.771873 0 0 0
70.046242 -54.253357 10.359373 0 0 0
70.111862 -54.515457 9.4437695 0 0 0
70.350739 -53.564659 9.767293 0 0 0
70.347015 -53.380638 10.846874 0 0 0
70.668907 -53.045387 9.4661293 0 0 0
70.88121 -52.527245 9.984374 0 0 0
70.630356 -52.818367 10.621874 0 0 0
71.445572 -51.925915 10.021873 0 0 0
71.01944 -52.383354 10.659373 0 0 0
71.708977 -51.702454 10.471873 0 0 0
72.135376 -51.338085 10.021873 0 0 0
72.634575 -50.962257 10.396873 0 0 0
73.11264 -50.751068 9.8718739 0 0 0
73.596474 -50.544571 10.604016 0 0 0
73.709167 -50.451797 10.171874 0 0 0
73.801086 -50.525749 9.7142944 0 0 0
74.232437 -50.23317 10.144562 0 0 0
74.439926 -50.510841 9.2858477 0 0 0
74.238968 -50.227203 10.549693 0 0 0
74.585716 -50.153126 9.6631317 0 0 0
78.902634 -57.581974 11.907918 0 0 0
79.175934 -56.770954 12.116055 0 0 0
79.393173 -56.748333 11.336974 0 0 0
79.465157 -56.235157 11.671874 0 0 0
79.417274 -55.935158 11.971873 0 0 0
79.151207 -55.893265 12.640003 0 0 0
79.365807 -55.459076 12.271873 0 0 0
78.795807 -55.260155 13.293848 0 0 0
71.770416 -57.12912 7.1447368 0 0 0
72.030121 -56.696327 6.7787323 0 0 0
71.943665 -56.08815 6.6893473 0 0 0
71.816902 -55.185154 6.7583103 0 0 0
72.02137 -54.269691 6.7721338 0 0 0
72.020355 -53.606628 7.0467906 0 0 0
72.641411 -52.910492 7.0335846 0 0 0
77.101295 -56.679623 6.664031 0 0 0
77.688515 -56.759323 7.0630078 0 0 0
73.34993 -52.369709 7.0568333 0 0 0
74.163254 -52.7342 6.5542593 0 0 0
74.460587 -52.089611 7.0007153 0 0 0
71.114952 -47.110916 7.2201948 0 0 0
71.102173 -56.995724 7.7662244 0 0 0
70.50692 -57.306831 9.0413465 0 0 0
70.597549 -56.843456 8.4193573 0 0 0
70.348816 -56.179596 8.6023731 0 0 0
71.92926 -46.630882 7.1754837 0 0 0
70.782852 -56.05444 7.834034 0 0 0
70.594269 -55.485153 8.0161581 0 0 0
70.321831 -55.410156 8.5502758 0 0 0
70.801491 -54.583565 7.8832636 0 0 0
70.32103 -54.590675 8.7416573 0 0 0
70.606018 -53.846848 8.6075916 0 0 0
71.114212 -53.30043 8.1906996 0 0 0
71.009834 -52.730839 9.0542021 0 0 0
71.569519 -52.641617 8.2040138 0 0 0
71.962692 -52.162518 8.3421659 0 0 0
71.534332 -52.200241 8.9252682 0 0 0
72.567146 -52.216293 7.6549492 0 0 0
72.461929 -51.621536 8.6209164 0 0 0
73.093399 -51.667446 7.9398041 0 0 0
73.476761 -51.026756 8.8239365 0 0 0
73.808624 -51.573242 7.6974988 0 0 0
74.535202 -50.999718 8.2745171 0 0 0
74.842178 -50.918098 8.2127457 0 0 0
74.92128 -50.553253 8.7349892 0 0 0
79.197212 -57.3382 10.246874 0 0 0
79.135147 -57.45784 10.959373 0 0 0
79.442665 -56.835155 10.621874 0 0 0
71.770309 -45.785027 8.1124573 0 0 0
72.172241 -59.247139 12.126808 0 0 0
72.941422 -59.182396 12.994721 0 0 0
73.076096 -59.555447 12.445028 0 0 0
73.500809 -59.941307 11.744543 0 0 0
73.951996 -59.837265 12.402584 0 0 0
73.904388 -59.45694 13.118402 0 0 0
71.70507 -58.470394 12.740667 0 0 0
71.676361 -58.815453 12.103679 0 0 0
72.436768 -58.869476 13.037868 0 0 0
74.812248 -59.672543 12.915998 0 0 0
74.807251 -60.060047 11.931776 0 0 0
75.612442 -59.802567 12.504622 0 0 0
75.704559 -60.026749 11.746874 0 0 0
75.634277 -59.541248 13.020279 0 0 0
76.432419 -59.488384 12.657657 0 0 0
76.972969 -59.102322 12.847404 0 0 0
73.20314 -58.60276 13.918551 0 0 0
73.651993 -58.911617 14.009874 0 0 0
77.095749 -59.431011 11.967719 0 0 0
73.651993 -58.587082 14.357111 0 0 0
77.842026 -58.726112 12.276325 0 0 0
74.214493 -58.912231 14.071874 0 0 0
77.450691 -58.537308 13.126818 0 0 0
75.336975 -58.619438 14.222601 0 0 0
75.866241 -58.791622 13.928441 0 0 0
72.897598 -58.485542 7.3201513 0 0 0
74.551994 -59.138973 7.5572281 0 0 0
76.174416 -58.501781 7.3066955 0 0 0
71.373787 -58.885883 10.996874 0 0 0
71.941933 -59.227577 11.494286 0 0 0
73.104149 -59.941193 11.142824 0 0 0
74.305634 -60.19215 11.184374 0 0 0
75.301994 -60.188622 11.238581 0 0 0
75.874161 -60.115704 10.929685 0 0 0
76.497147 -59.902679 11.208163 0 0 0
77.334915 -59.431873 11.169521 0 0 0
71.734856 -59.104721 9.4303703 0 0 0
73.801994 -60.002281 9.4218731 0 0 0
71.46553 -56.385155 7.1204247 0 0 0
71.21006 -55.166405 7.2753711 0 0 0
77.402679 -59.128181 9.3232288 0 0 0
71.376724 -54.290031 7.2962093 0 0 0
71.373886 -53.695801 7.5854244 0 0 0
71.771889 -52.90657 7.7194347 0 0 0
71.068169 -57.261715 13.039591 0 0 0
70.612556 -55.635155 12.981889 0 0 0
78.007507 -57.209641 7.6010642 0 0 0
70.657394 -54.885155 13.022324 0 0 0
70.624718 -54.113331 12.710183 0 0 0
70.935974 -53.572029 12.741484 0 0 0
78.15377 -53.232182 12.871874 0 0 0
77.686371 -52.914772 12.887759 0 0 0
77.072632 -52.169556 12.619013 0 0 0
77.851997 -52.635155 12.671685 0 0 0
78.151993 -52.935158 12.744082 0 0 0
77.678993 -52.166595 12.575594 0 0 0
76.201996 -51.4007 12.288175 0 0 0
74.645744 -51.500496 7.5603647 0 0 0
72.545258 -57.138039 14.53163 0 0 0
72.530685 -56.55827 14.69145 0 0 0
73.204704 -57.585854 14.667221 0 0 0
72.524422 -54.652954 14.702255 0 0 0
72.899612 -54.132732 14.743467 0 0 0
73.633621 -53.722069 14.693302 0 0 0
76.435074 -57.588692 14.587729 0 0 0
76.827103 -56.78487 14.711034 0 0 0
76.845123 -56.02396 14.87281 0 0 0
77.659813 -55.785156 14.423819 0 0 0
73.439911 -53.118256 14.041588 0 0 0
74.963898 -53.034199 14.383234 0 0 0
75.243202 -53.209599 14.686813 0 0 0
75.884598 -53.220131 14.677067 0 0 0
77.11673 -54.66655 14.699831 0 0 0
77.708374 -54.885155 14.380528 0 0 0
77.269707 -54.049835 14.417165 0 0 0
76.520615 -53.526093 14.620761 0 0 0
76.509338 -53.228279 14.473566 0 0 0
75.901993 -52.908451 14.402128 0 0 0
76.306473 -52.951443 14.371874 0 0 0
78.772552 -57.118793 12.75843 0 0 0
78.870682 -56.385155 13.021088 0 0 0
79.125702 -55.273857 12.729259 0 0 0
79.176651 -55.035156 12.571874 0 0 0
78.959915 -54.585159 12.844301 0 0 0
79.051994 -54.435158 12.717177 0 0 0
79.18576 -54.735157 12.571874 0 0 0
78.600876 -53.835155 12.871874 0 0 0
78.751999 -54.110367 12.889309 0 0 0
78.751999 -53.835155 12.781723 0 0 0
70.043861 -56.453758 11.071874 0 0 0
69.91938 -55.560154 10.921873 0 0 0
70.118622 -54.067261 11.146873 0 0 0
72.751999 -50.931564 10.771873 0 0 0
72.856918 -51.14418 11.410893 0 0 0
73.393166 -50.771843 11.071874 0 0 0
70.102066 -55.473801 9.1187077 0 0 0
71.431137 -52.066193 9.5015583 0 0 0
72.360573 -51.31741 9.4695263 0 0 0
74.851997 -50.235157 9.248539 0 0 0
72.294273 -58.432755 13.418815 0 0 0
74.176994 -59.164894 13.69903 0 0 0
75.261902 -59.177357 13.644489 0 0 0
76.300461 -59.019371 13.463097 0 0 0
71.257721 -58.629158 11.56328 0 0 0
72.593803 -59.549927 11.82471 0 0 0
76.358582 -59.824394 11.841719 0 0 0
78.022392 -58.8069 11.628073 0 0 0
74.851997 -51.197426 7.8452635 0 0 0
77.708786 -53.190533 13.156561 0 0 0
76.73983 -52.565838 13.156766 0 0 0
76.876999 -52.436913 12.876001 0 0 0
71.20871 -58.680756 9.5718737 0 0 0
72.341057 -59.552456 9.5718737 0 0 0
74.851997 -50.760292 11.737175 0 0 0
75.451996 -50.835155 11.928066 0 0 0
74.139511 -51.27372 12.125568 0 0 0
73.051994 -51.513443 12.164825 0 0 0
73.651993 -50.925728 11.527205 0 0 0
73.951996 -57.27124 14.987146 0 0 0
73.235931 -56.712746 14.975426 0 0 0
72.899452 -55.785156 14.972054 0 0 0
72.880157 -54.866848 14.934546 0 0 0
73.412292 -54.30439 15.013313 0 0 0
74.345749 -53.859795 14.981361 0 0 0
74.623001 -57.600662 14.92159 0 0 0
75.230942 -57.242096 15.052223 0 0 0
75.988083 -56.999542 14.981057 0 0 0
76.201996 -56.085159 15.111591 0 0 0
76.276993 -55.485153 15.124793 0 0 0
76.817535 -55.410156 14.92552 0 0 0
76.25798 -54.462128 14.979661 0 0 0
75.376999 -54.322655 15.141731 0 0 0
75.22699 -53.698509 14.983351 0 0 0
75.750839 -53.667278 14.904501 0 0 0
75.151993 -51.396469 12.305079 0 0 0
75.788315 -52.058094 12.838938 0 0 0
74.552002 -51.987495 12.926353 0 0 0
73.917328 -52.521225 13.518589 0 0 0
73.051994 -52.07666 12.827595 0 0 0
72.451996 -52.799507 13.313945 0 0 0
74.851997 -52.528664 13.624652 0 0 0
74.251999 -50.433067 11.071874 0 0 0
73.591263 -58.964905 13.771873 0 0 0
0 0 0 1 0 0 0 1 0 0 0 1 0 0 0 0 0 382 1 0 0
