ply
format ascii 1.0
comment PCL generated
element vertex 790
property float x
property float y
property float z
property uchar red
property uchar green
property uchar blue
element camera 1
property float view_px
property float view_py
property float view_pz
property float x_axisx
property float x_axisy
property float x_axisz
property float y_axisx
property float y_axisy
property float y_axisz
property float z_axisx
property float z_axisy
property float z_axisz
property float focal
property float scalex
property float scaley
property float centerx
property float centery
property int viewportx
property int viewporty
property float k1
property float k2
end_header
-61.077114 -109.57463 -30.730457 0 0 0
-61.43853 -109.15262 -30.453096 0 0 0
-61.980415 -108.87126 -30.634031 0 0 0
-60.944405 -109.16299 -30.142391 0 0 0
-60.606148 -109.80428 -30.774921 0 0 0
-60.38208 -109.57542 -30.336246 0 0 0
-60.223289 -109.93227 -30.789391 0 0 0
-59.744392 -109.89278 -30.591774 0 0 0
-59.92329 -109.63409 -30.262329 0 0 0
-59.473289 -109.5619 -30.121775 0 0 0
-60.405838 -109.13393 -29.866547 0 0 0
-59.92329 -109.20889 -29.797813 0 0 0
-62.345291 -108.42535 -30.556259 0 0 0
-61.977539 -108.36629 -30.140842 0 0 0
-62.749279 -107.6412 -30.447031 0 0 0
-62.765324 -108.10397 -30.84483 0 0 0
-62.335258 -107.94316 -30.160213 0 0 0
-62.945587 -107.06132 -30.391924 0 0 0
-62.492722 -107.02782 -29.847328 0 0 0
-62.392189 -107.49757 -29.940189 0 0 0
-63.278854 -106.73962 -30.777378 0 0 0
-62.866478 -106.59756 -30.12907 0 0 0
-61.602219 -108.72595 -30.136097 0 0 0
-63.242794 -106.29757 -30.576256 0 0 0
-63.245869 -105.84756 -30.571966 0 0 0
-63.330383 -105.26633 -30.797119 0 0 0
-62.965763 -106.11006 -30.189251 0 0 0
-62.930477 -105.54757 -30.145069 0 0 0
-62.595695 -105.28506 -29.83477 0 0 0
-62.93766 -104.96378 -30.295166 0 0 0
-63.137672 -104.65401 -30.735346 0 0 0
-62.703957 -104.56143 -30.169985 0 0 0
-62.914864 -104.23448 -30.621071 0 0 0
-62.561203 -104.03664 -30.295259 0 0 0
-62.15958 -104.02664 -29.911085 0 0 0
-62.635113 -103.69208 -30.684299 0 0 0
-62.31176 -103.62785 -30.321478 0 0 0
-62.010643 -103.62918 -30.019669 0 0 0
-62.15543 -103.23741 -30.553902 0 0 0
-61.529469 -102.85224 -30.368055 0 0 0
-61.709373 -103.30974 -30.030174 0 0 0
-61.289986 -103.01566 -30.015427 0 0 0
-62.0028 -102.77525 -30.970901 0 0 0
-60.984337 -102.22662 -30.74699 0 0 0
-60.670437 -102.58227 -30.109068 0 0 0
-60.043091 -102.30891 -30.189804 0 0 0
-60.373291 -102.07468 -30.581503 0 0 0
-59.473289 -102.09756 -30.325371 0 0 0
-59.773293 -101.88686 -30.642689 0 0 0
-59.103256 -109.90561 -30.58638 0 0 0
-58.873291 -109.54979 -30.126902 0 0 0
-58.285843 -109.71488 -30.462025 0 0 0
-58.42329 -109.34523 -29.957935 0 0 0
-57.676655 -109.65688 -30.626965 0 0 0
-57.949142 -109.2802 -30.019821 0 0 0
-57.407806 -109.15848 -30.147095 0 0 0
-57.148491 -109.48992 -30.739985 0 0 0
-56.684441 -108.93954 -30.433765 0 0 0
-56.596458 -108.41113 -29.997746 0 0 0
-56.301712 -108.5815 -30.423922 0 0 0
-55.871948 -108.39886 -30.758125 0 0 0
-56.104462 -107.89275 -30.089527 0 0 0
-55.70261 -107.80231 -30.474016 0 0 0
-55.240341 -107.31905 -30.833443 0 0 0
-55.691887 -107.05569 -30.092922 0 0 0
-55.375381 -106.91286 -30.446278 0 0 0
-55.647137 -106.44757 -29.989141 0 0 0
-55.101036 -106.59756 -30.759474 0 0 0
-55.391178 -106.29757 -30.266556 0 0 0
-55.833061 -106.07257 -29.7663 0 0 0
-55.388542 -105.84756 -30.262501 0 0 0
-55.053719 -105.84756 -30.758442 0 0 0
-55.822136 -105.54757 -29.808226 0 0 0
-55.445034 -105.00104 -30.361187 0 0 0
-55.156387 -105.24757 -30.694847 0 0 0
-56.161133 -104.36385 -29.837902 0 0 0
-55.886269 -104.91539 -29.864338 0 0 0
-55.608036 -104.33722 -30.459169 0 0 0
-58.594658 -102.53457 -29.85832 0 0 0
-59.398289 -101.76339 -30.784439 0 0 0
-58.873291 -101.77101 -30.792109 0 0 0
-58.894585 -102.09071 -30.311941 0 0 0
-59.173286 -102.51694 -29.826271 0 0 0
-58.207787 -102.05791 -30.535124 0 0 0
-58.123287 -102.34689 -30.188194 0 0 0
-57.684319 -102.54684 -30.164459 0 0 0
-57.046562 -102.65872 -30.412716 0 0 0
-57.523289 -102.97991 -29.802809 0 0 0
-56.855679 -103.12802 -30.102802 0 0 0
-57.373291 -102.31551 -30.608442 0 0 0
-56.005779 -103.44197 -30.648956 0 0 0
-55.863098 -103.85025 -30.446434 0 0 0
-56.308487 -103.78034 -29.994526 0 0 0
-56.361191 -103.13544 -30.537615 0 0 0
-56.586433 -102.70274 -30.794182 0 0 0
-62.168098 -109.61378 -32.633442 0 0 0
-62.009926 -109.58646 -31.927349 0 0 0
-62.924515 -108.85008 -32.558441 0 0 0
-62.494537 -109.16199 -31.974722 0 0 0
-62.572819 -109.24679 -32.558441 0 0 0
-61.258263 -110.17266 -32.493118 0 0 0
-60.673286 -110.36788 -32.258438 0 0 0
-60.978218 -110.13827 -31.808441 0 0 0
-60.201309 -110.49333 -32.221291 0 0 0
-60.373291 -110.34337 -31.808441 0 0 0
-59.773293 -110.60976 -32.558441 0 0 0
-59.773293 -110.49605 -31.957901 0 0 0
-61.701859 -109.88757 -32.241058 0 0 0
-61.58197 -109.83236 -31.782839 0 0 0
-63.257847 -108.32036 -32.369194 0 0 0
-63.530708 -107.86539 -32.535629 0 0 0
-63.522343 -107.63232 -32.03344 0 0 0
-63.105885 -108.22684 -31.650696 0 0 0
-62.856411 -108.70804 -31.853577 0 0 0
-63.682613 -107.49757 -32.558441 0 0 0
-63.812214 -107.03363 -32.557178 0 0 0
-63.692287 -107.04757 -31.958441 0 0 0
-63.458031 -107.33005 -31.514872 0 0 0
-63.925114 -106.44757 -32.558441 0 0 0
-63.810562 -106.44757 -31.971933 0 0 0
-63.915169 -105.84756 -32.333443 0 0 0
-63.729843 -106.14757 -31.591209 0 0 0
-63.882675 -105.24757 -32.40844 0 0 0
-63.806816 -105.4346 -31.963114 0 0 0
-63.732689 -104.94757 -31.971531 0 0 0
-63.770332 -104.6595 -32.558441 0 0 0
-63.57642 -104.33966 -32.004112 0 0 0
-63.57011 -104.05762 -32.558441 0 0 0
-63.42807 -104.23147 -31.658442 0 0 0
-63.200966 -103.7365 -31.732891 0 0 0
-63.273926 -103.46248 -32.558441 0 0 0
-62.926064 -102.99336 -32.295044 0 0 0
-62.915134 -103.31628 -31.643038 0 0 0
-62.502579 -102.81249 -31.674402 0 0 0
-62.640255 -102.67786 -32.267746 0 0 0
-62.311283 -102.39757 -32.21875 0 0 0
-62.047287 -102.37794 -31.678715 0 0 0
-62.134346 -102.12874 -33.027191 0 0 0
-61.839592 -102.06924 -32.10844 0 0 0
-61.691574 -101.87103 -32.59594 0 0 0
-61.27494 -101.70647 -32.309772 0 0 0
-61.545532 -102.13112 -31.486572 0 0 0
-61.015732 -101.80929 -31.618429 0 0 0
-59.323288 -110.59138 -32.258438 0 0 0
-58.985786 -110.63876 -32.633442 0 0 0
-58.929539 -110.41982 -31.704464 0 0 0
-58.448166 -110.52209 -32.266331 0 0 0
-58.42329 -110.36053 -31.658442 0 0 0
-57.973289 -110.3998 -32.183441 0 0 0
-57.701408 -110.41494 -32.708443 0 0 0
-57.390812 -110.22104 -32.183441 0 0 0
-57.378269 -110.08862 -31.744282 0 0 0
-56.7565 -109.91779 -32.268803 0 0 0
-56.773289 -109.80724 -31.807396 0 0 0
-56.267448 -109.64107 -32.40844 0 0 0
-56.193146 -109.4317 -31.933651 0 0 0
-55.810947 -109.2092 -32.333439 0 0 0
-55.736572 -108.98349 -31.870543 0 0 0
-55.402119 -108.72734 -32.250732 0 0 0
-55.38678 -108.51575 -31.808441 0 0 0
-55.081043 -108.23222 -32.181595 0 0 0
-54.87207 -107.96342 -32.552708 0 0 0
-54.849792 -107.62843 -31.966888 0 0 0
-54.673862 -107.49757 -32.558441 0 0 0
-54.596992 -107.04248 -32.263927 0 0 0
-54.71151 -107.04757 -31.808441 0 0 0
-54.486488 -106.44757 -32.346809 0 0 0
-54.687248 -106.44757 -31.583443 0 0 0
-54.757111 -104.34756 -32.575012 0 0 0
-54.879337 -104.33274 -31.973431 0 0 0
-54.694271 -104.92345 -31.958441 0 0 0
-57.091236 -101.82884 -31.958441 0 0 0
-55.05069 -103.74757 -32.540741 0 0 0
-55.177925 -103.73093 -31.959358 0 0 0
-55.552505 -103.02614 -32.29594 0 0 0
-55.427193 -103.31712 -31.926779 0 0 0
-55.737598 -103.02685 -31.636417 0 0 0
-56.005905 -102.52969 -32.258438 0 0 0
-56.463326 -102.23836 -31.930264 0 0 0
-56.033905 -102.708 -31.622192 0 0 0
-56.91095 -101.78662 -32.558441 0 0 0
-56.434269 -102.10016 -32.633442 0 0 0
-55.742992 -102.73734 -32.558441 0 0 0
-54.563057 -106.29757 -31.958441 0 0 0
-54.445656 -105.84756 -32.558441 0 0 0
-54.562851 -105.85867 -31.951328 0 0 0
-54.522243 -105.26791 -32.362015 0 0 0
-54.683655 -105.39757 -31.658442 0 0 0
-54.611111 -104.79757 -32.40844 0 0 0
-60.590118 -101.43929 -32.271702 0 0 0
-60.073288 -101.31587 -32.258438 0 0 0
-60.339581 -101.49717 -31.778404 0 0 0
-59.623291 -101.21088 -32.455719 0 0 0
-59.698292 -101.32506 -31.958441 0 0 0
-59.173286 -101.30251 -31.958441 0 0 0
-59.173286 -101.20188 -32.442722 0 0 0
-58.547997 -101.22192 -32.610306 0 0 0
-58.579597 -101.3596 -31.923655 0 0 0
-58.198288 -101.35043 -32.258438 0 0 0
-57.823288 -101.39293 -32.558441 0 0 0
-57.813492 -101.57907 -31.799091 0 0 0
-57.370461 -101.5752 -32.512337 0 0 0
-62.091309 -109.65007 -33.908443 0 0 0
-62.001755 -109.58898 -34.384552 0 0 0
-62.215336 -109.60701 -33.458443 0 0 0
-62.493797 -109.16414 -34.337585 0 0 0
-62.602089 -109.20224 -33.833443 0 0 0
-62.883369 -108.95093 -33.458443 0 0 0
-60.976547 -110.25612 -34.039604 0 0 0
-61.255993 -110.1997 -33.683441 0 0 0
-60.684074 -110.44569 -33.445381 0 0 0
-60.357384 -110.44354 -34.068703 0 0 0
-60.223289 -110.57452 -33.458443 0 0 0
-59.998291 -110.45792 -34.380241 0 0 0
-59.698288 -110.61327 -33.758442 0 0 0
-59.473289 -110.56668 -34.208443 0 0 0
-61.752419 -109.91286 -33.776497 0 0 0
-61.551674 -109.94548 -34.208443 0 0 0
-63.290623 -108.23529 -34.06263 0 0 0
-63.183838 -108.5481 -33.53344 0 0 0
-63.606655 -107.65004 -33.888435 0 0 0
-63.53791 -107.90836 -33.60844 0 0 0
-62.976051 -108.76819 -33.908443 0 0 0
-62.904808 -108.68393 -34.380344 0 0 0
-63.68766 -107.23507 -34.212929 0 0 0
-63.844875 -107.02721 -33.60844 0 0 0
-63.707546 -106.73522 -34.588177 0 0 0
-63.901463 -106.59756 -33.908443 0 0 0
-63.96003 -106.44757 -33.233444 0 0 0
-63.915581 -106.14757 -34.058441 0 0 0
-63.985722 -105.84756 -33.458443 0 0 0
-63.916527 -105.69757 -34.058441 0 0 0
-63.803261 -105.25679 -34.3344 0 0 0
-63.911118 -105.24757 -33.758442 0 0 0
-63.828026 -104.78143 -33.732254 0 0 0
-63.703487 -104.79757 -34.358444 0 0 0
-63.608437 -104.39168 -34.219784 0 0 0
-63.557899 -104.0703 -33.908443 0 0 0
-63.713089 -104.34756 -33.53344 0 0 0
-63.2593 -103.74954 -34.449974 0 0 0
-63.238522 -103.46361 -33.90844 0 0 0
-63.53096 -103.88185 -33.459373 0 0 0
-63.261406 -103.37681 -33.195942 0 0 0
-62.912071 -103.00811 -34.07843 0 0 0
-62.810478 -102.79932 -33.608444 0 0 0
-62.656525 -102.69757 -34.208443 0 0 0
-62.390671 -102.31278 -33.908443 0 0 0
-62.590775 -102.51064 -33.383438 0 0 0
-62.39875 -102.31226 -33.308441 0 0 0
-62.100929 -102.02553 -33.60844 0 0 0
-59.023289 -110.60315 -34.058441 0 0 0
-59.023289 -110.66742 -33.458443 0 0 0
-58.723289 -110.51606 -34.330482 0 0 0
-58.573288 -110.60831 -33.72094 0 0 0
-58.114441 -110.4329 -34.214966 0 0 0
-57.687828 -110.39798 -33.758442 0 0 0
-58.123287 -110.55036 -33.60844 0 0 0
-57.388489 -110.17972 -34.356697 0 0 0
-57.09465 -110.16209 -33.758442 0 0 0
-56.710594 -109.91837 -34.049568 0 0 0
-56.602013 -109.92484 -33.458443 0 0 0
-56.103073 -109.50787 -33.908443 0 0 0
-56.191288 -109.45375 -34.355461 0 0 0
-56.201775 -109.64563 -33.458443 0 0 0
-55.701359 -109.02167 -34.258278 0 0 0
-55.754005 -109.26748 -33.458443 0 0 0
-55.375046 -108.78926 -33.758442 0 0 0
-55.439758 -108.6693 -34.373116 0 0 0
-55.143349 -108.3662 -34.050049 0 0 0
-55.098625 -108.43733 -33.458443 0 0 0
-54.914452 -107.77447 -34.283443 0 0 0
-54.875717 -107.96138 -33.754829 0 0 0
-54.683601 -107.49757 -33.758442 0 0 0
-54.646252 -107.04757 -34.208443 0 0 0
-54.530598 -106.90524 -33.770649 0 0 0
-54.453323 -106.67256 -33.458443 0 0 0
-54.769333 -104.39507 -34.075928 0 0 0
-55.143959 -103.68525 -34.383446 0 0 0
-54.933285 -103.89757 -33.758442 0 0 0
-55.207294 -103.43591 -33.918438 0 0 0
-54.704994 -104.4108 -33.383438 0 0 0
-55.454391 -103.04852 -34.058441 0 0 0
-55.446983 -103.02787 -33.233444 0 0 0
-55.168282 -103.4172 -33.383442 0 0 0
-56.035477 -102.11403 -34.250359 0 0 0
-56.129341 -102.19417 -33.908443 0 0 0
-56.549744 -101.71571 -33.908443 0 0 0
-56.323288 -101.78288 -34.192097 0 0 0
-56.30648 -102.10078 -33.484558 0 0 0
-55.777573 -102.52568 -34.208443 0 0 0
-55.795357 -102.62549 -33.73008 0 0 0
-54.534706 -106.1559 -34.305111 0 0 0
-54.423836 -106.22256 -33.570942 0 0 0
-54.456432 -105.84756 -33.908443 0 0 0
-54.582802 -105.54757 -34.361069 0 0 0
-54.526711 -105.29085 -33.940399 0 0 0
-54.440418 -105.54757 -33.458443 0 0 0
-54.686836 -104.94757 -34.358444 0 0 0
-54.5448 -104.95164 -33.390984 0 0 0
-57.223289 -101.22951 -33.60844 0 0 0
-56.941807 -101.49757 -33.634693 0 0 0
-62.052742 -109.01013 -35.426079 0 0 0
-60.676907 -109.55104 -35.854355 0 0 0
-61.178436 -109.61372 -35.433479 0 0 0
-60.697922 -109.91699 -35.265877 0 0 0
-61.540962 -109.17825 -35.706055 0 0 0
-61.088013 -109.36572 -35.846035 0 0 0
-59.948059 -109.92496 -35.612812 0 0 0
-60.206543 -109.46033 -36.174782 0 0 0
-59.623291 -109.6282 -36.122711 0 0 0
-59.473289 -110.21096 -35.218845 0 0 0
-62.48193 -108.56499 -35.430996 0 0 0
-61.978691 -108.60896 -35.96357 0 0 0
-62.412422 -108.28381 -35.800137 0 0 0
-62.736511 -107.70492 -35.855179 0 0 0
-62.931747 -107.92818 -35.402344 0 0 0
-63.208221 -107.3735 -35.381832 0 0 0
-63.209084 -106.76388 -35.691128 0 0 0
-63.442497 -106.76097 -35.253014 0 0 0
-62.888481 -107.21001 -35.940811 0 0 0
-62.808044 -106.52257 -36.271301 0 0 0
-63.249924 -106.14757 -35.747883 0 0 0
-63.5228 -106.14757 -35.259872 0 0 0
-63.151749 -105.62257 -35.876961 0 0 0
-63.300941 -105.23421 -35.554508 0 0 0
-63.527573 -105.62257 -35.231045 0 0 0
-62.974785 -105.99757 -36.132561 0 0 0
-63.193634 -104.62035 -35.472427 0 0 0
-62.942707 -104.94757 -36.048389 0 0 0
-62.840561 -104.49757 -36.008442 0 0 0
-62.920822 -104.20384 -35.708443 0 0 0
-63.237885 -104.12257 -34.998718 0 0 0
-62.92329 -103.87155 -35.432823 0 0 0
-59.173286 -109.91838 -35.739799 0 0 0
-59.173286 -109.64276 -36.129562 0 0 0
-58.873291 -110.20669 -35.215958 0 0 0
-58.47184 -109.90968 -35.638641 0 0 0
-58.538239 -109.55173 -36.158836 0 0 0
-57.673286 -109.66229 -35.691227 0 0 0
-57.062489 -109.54175 -35.426514 0 0 0
-57.34169 -109.32891 -35.928261 0 0 0
-56.951462 -109.28815 -35.696636 0 0 0
-56.612549 -108.86469 -35.86528 0 0 0
-56.635101 -109.28833 -35.38166 0 0 0
-56.162704 -108.85384 -35.415718 0 0 0
-56.159126 -108.36062 -35.948498 0 0 0
-55.732536 -108.38472 -35.379124 0 0 0
-55.571995 -107.94821 -35.558559 0 0 0
-55.739239 -107.67749 -35.988937 0 0 0
-55.426567 -107.27257 -35.816753 0 0 0
-55.124264 -107.35999 -35.251015 0 0 0
-55.544014 -106.65869 -36.177765 0 0 0
-55.150166 -106.74757 -35.634228 0 0 0
-54.936543 -106.44757 -35.326302 0 0 0
-55.388485 -106.14757 -36.05312 0 0 0
-55.123287 -106.14757 -35.691353 0 0 0
-55.082909 -105.54757 -35.544941 0 0 0
-55.40448 -105.49165 -36.020439 0 0 0
-55.591629 -104.49757 -36.028664 0 0 0
-55.096622 -104.72818 -35.272205 0 0 0
-55.463257 -104.06717 -35.699356 0 0 0
-55.210602 -104.02557 -35.064186 0 0 0
-55.694954 -103.89757 -36.049004 0 0 0
-55.704514 -103.59756 -36.030548 0 0 0
-55.545315 -103.59756 -35.708443 0 0 0
-55.385242 -103.51569 -35.169277 0 0 0
-55.566555 -103.14757 -35.558441 0 0 0
-60.98101 -107.87854 -37.126106 0 0 0
-59.803322 -108.39043 -37.201111 0 0 0
-60.44062 -108.38814 -37.038254 0 0 0
-60.389553 -107.63652 -37.438202 0 0 0
-59.757103 -107.95427 -37.438057 0 0 0
-61.280033 -107.51434 -37.149063 0 0 0
-60.707527 -107.0515 -37.531952 0 0 0
-61.283981 -107.03992 -37.300056 0 0 0
-61.565834 -106.46137 -37.286896 0 0 0
-60.978302 -106.35466 -37.592964 0 0 0
-60.223289 -107.04757 -37.684517 0 0 0
-59.766186 -107.25418 -37.701561 0 0 0
-60.056683 -106.59756 -37.840576 0 0 0
-61.774529 -105.99757 -37.242996 0 0 0
-61.264252 -105.96892 -37.5639 0 0 0
-60.805252 -105.9694 -37.800556 0 0 0
-61.566967 -105.69757 -37.508442 0 0 0
-61.42329 -105.69757 -37.656582 0 0 0
-61.84127 -105.69757 -37.258453 0 0 0
-61.994125 -105.39757 -37.173615 0 0 0
-60.363659 -106.27596 -37.844246 0 0 0
-59.098289 -108.5628 -37.135086 0 0 0
-58.450897 -108.24757 -37.280247 0 0 0
-59.135788 -107.97434 -37.472103 0 0 0
-58.599014 -107.81181 -37.510437 0 0 0
-58.052048 -108.26398 -37.174973 0 0 0
-57.973289 -107.79757 -37.393269 0 0 0
-57.511681 -107.96767 -37.154503 0 0 0
-59.135788 -107.29024 -37.727161 0 0 0
-58.565323 -107.20186 -37.709976 0 0 0
-58.573288 -106.65293 -37.861561 0 0 0
-58.068275 -107.28519 -37.588898 0 0 0
-57.641575 -106.87772 -37.564842 0 0 0
-57.523289 -107.49757 -37.365681 0 0 0
-57.215485 -107.667 -37.163414 0 0 0
-57.07724 -107.14191 -37.264721 0 0 0
-58.15387 -106.54173 -37.800861 0 0 0
-57.062462 -106.48852 -37.383793 0 0 0
-57.688057 -106.28365 -37.716103 0 0 0
-57.684204 -105.97844 -37.867512 0 0 0
-57.112728 -105.99757 -37.528542 0 0 0
-57.232784 -105.68797 -37.792221 0 0 0
-56.469017 -106.34446 -37.048122 0 0 0
-56.944839 -105.37453 -37.808441 0 0 0
-56.92329 -105.39757 -37.690815 0 0 0
-56.867432 -105.54757 -37.505959 0 0 0
-56.584705 -105.39757 -37.252304 0 0 0
-56.584354 -105.69757 -37.208443 0 0 0
-56.631104 -105.08673 -37.473877 0 0 0
-56.48885 -105.09756 -37.208443 0 0 0
-56.402107 -104.79757 -37.208443 0 0 0
-59.473289 -109.23653 -29.76671 0 0 0
-59.398289 -108.87859 -29.455956 0 0 0
-61.973602 -107.63483 -29.646458 0 0 0
-61.99649 -107.05394 -29.431236 0 0 0
-62.43512 -106.59756 -29.677633 0 0 0
-62.079056 -106.59756 -29.367107 0 0 0
-61.008087 -108.61929 -29.674559 0 0 0
-61.573288 -108.15195 -29.662323 0 0 0
-61.471378 -107.82489 -29.394005 0 0 0
-60.829292 -108.25522 -29.333206 0 0 0
-60.373291 -108.65159 -29.436653 0 0 0
-59.92329 -108.73489 -29.379543 0 0 0
-61.575241 -107.34937 -29.255392 0 0 0
-62.5811 -106.14757 -29.749844 0 0 0
-62.141342 -106.14757 -29.369949 0 0 0
-62.582207 -105.69757 -29.746468 0 0 0
-62.109455 -105.54757 -29.367119 0 0 0
-62.244762 -104.62506 -29.678284 0 0 0
-61.885857 -104.77924 -29.363602 0 0 0
-61.417046 -104.14316 -29.317101 0 0 0
-61.674252 -103.71355 -29.72508 0 0 0
-61.123291 -103.76574 -29.352598 0 0 0
-60.547943 -103.42154 -29.346745 0 0 0
-61.221413 -103.28003 -29.72942 0 0 0
-60.661156 -102.97824 -29.699198 0 0 0
-60.073288 -103.01105 -29.4739 0 0 0
-59.500576 -102.96986 -29.408442 0 0 0
-60.223289 -102.73407 -29.746712 0 0 0
-59.775528 -102.68623 -29.697041 0 0 0
-58.873291 -109.22672 -29.776218 0 0 0
-58.038887 -108.83713 -29.589897 0 0 0
-58.723289 -108.87204 -29.473795 0 0 0
-57.98465 -108.28152 -29.188578 0 0 0
-57.45649 -108.71725 -29.692688 0 0 0
-57.073288 -108.6692 -29.871872 0 0 0
-57.541706 -108.24757 -29.324284 0 0 0
-57.07753 -108.23985 -29.556782 0 0 0
-56.488911 -107.79311 -29.693281 0 0 0
-57.070095 -107.65919 -29.250969 0 0 0
-56.603287 -107.32248 -29.394608 0 0 0
-56.199539 -107.19757 -29.651604 0 0 0
-56.171921 -106.76167 -29.552891 0 0 0
-56.277008 -106.14757 -29.373388 0 0 0
-56.489491 -105.50022 -29.264339 0 0 0
-56.506416 -104.79757 -29.373569 0 0 0
-56.757202 -104.3341 -29.388924 0 0 0
-58.881172 -102.97841 -29.408442 0 0 0
-58.114532 -102.97131 -29.582165 0 0 0
-57.227875 -103.74933 -29.396408 0 0 0
-57.678394 -103.29757 -29.470787 0 0 0
-56.68541 -103.71856 -29.73534 0 0 0
-57.182556 -103.29757 -29.708441 0 0 0
-61.890442 -109.43289 -31.357094 0 0 0
-62.359207 -109.03152 -31.362673 0 0 0
-60.084091 -110.24367 -31.372913 0 0 0
-59.473289 -110.36854 -31.508442 0 0 0
-59.698292 -110.15089 -31.034367 0 0 0
-61.12368 -109.90639 -31.375456 0 0 0
-61.453949 -109.56024 -31.041489 0 0 0
-60.598289 -110.10913 -31.35844 0 0 0
-63.239014 -107.68309 -31.286686 0 0 0
-62.611298 -108.68264 -31.253883 0 0 0
-62.877525 -108.27429 -31.208441 0 0 0
-63.564949 -106.74928 -31.377275 0 0 0
-63.522964 -106.29757 -31.108883 0 0 0
-63.533043 -105.84756 -31.102261 0 0 0
-63.684753 -105.54757 -31.508442 0 0 0
-63.515228 -104.88853 -31.366905 0 0 0
-63.148041 -104.19389 -31.058441 0 0 0
-62.964294 -103.7558 -31.143152 0 0 0
-62.568291 -103.27936 -31.045338 0 0 0
-61.58017 -102.38042 -31.038906 0 0 0
-60.538406 -101.7225 -31.35844 0 0 0
-59.173286 -110.17801 -31.071392 0 0 0
-58.55975 -110.11391 -31.055267 0 0 0
-57.986565 -110.16017 -31.385372 0 0 0
-57.336067 -109.88253 -31.265749 0 0 0
-56.766537 -109.60471 -31.354717 0 0 0
-56.334732 -109.28109 -31.342911 0 0 0
-55.885777 -108.83805 -31.330444 0 0 0
-55.501408 -108.39626 -31.35844 0 0 0
-55.450653 -108.0463 -31.04649 0 0 0
-55.18174 -108.09756 -31.653145 0 0 0
-55.108032 -107.66338 -31.347794 0 0 0
-54.885639 -107.03075 -31.352051 0 0 0
-54.866615 -106.44757 -31.148773 0 0 0
-54.761852 -105.85353 -31.357372 0 0 0
-54.837006 -105.39757 -31.238983 0 0 0
-54.889977 -104.95853 -31.364914 0 0 0
-54.958099 -104.49757 -31.508442 0 0 0
-55.14452 -104.20667 -31.33639 0 0 0
-57.512619 -101.83919 -31.338478 0 0 0
-57.061634 -102.212 -31.033619 0 0 0
-55.60928 -103.49992 -31.212467 0 0 0
-55.428417 -104.01579 -30.953642 0 0 0
-56.094414 -102.98648 -31.049355 0 0 0
-56.634388 -102.29736 -31.421009 0 0 0
-56.309284 -102.66864 -31.186264 0 0 0
-60.073288 -101.59706 -31.361118 0 0 0
-59.623291 -101.52856 -31.333862 0 0 0
-58.948288 -101.52501 -31.333193 0 0 0
-58.273289 -101.64023 -31.208441 0 0 0
-61.832535 -109.91394 -33.23344 0 0 0
-62.597923 -109.27264 -33.15844 0 0 0
-62.889061 -108.9577 -33.008442 0 0 0
-61.248421 -110.23284 -33.15844 0 0 0
-60.823288 -110.39062 -32.858444 0 0 0
-60.362785 -110.52721 -32.860615 0 0 0
-59.698288 -110.65184 -33.15844 0 0 0
-63.231926 -108.50385 -33.083443 0 0 0
-63.548969 -107.91502 -33.15844 0 0 0
-63.771122 -107.34072 -33.15844 0 0 0
-63.900902 -106.89757 -33.15844 0 0 0
-63.993507 -105.84756 -33.008442 0 0 0
-63.940674 -105.24757 -33.083443 0 0 0
-63.834885 -104.68151 -33.15844 0 0 0
-63.675583 -104.19757 -33.008442 0 0 0
-63.473 -103.72942 -33.008442 0 0 0
-62.95961 -102.95027 -32.858444 0 0 0
-61.739235 -101.783 -33.207237 0 0 0
-58.873291 -110.66731 -33.008442 0 0 0
-58.273289 -110.59078 -33.15844 0 0 0
-57.69371 -110.44138 -33.308441 0 0 0
-57.213821 -110.25671 -33.083443 0 0 0
-56.58675 -109.92056 -32.858444 0 0 0
-56.20182 -109.64509 -32.858444 0 0 0
-55.371605 -108.8195 -32.933441 0 0 0
-55.758476 -109.2619 -32.858444 0 0 0
-55.091877 -108.44643 -32.858444 0 0 0
-54.799484 -107.91537 -33.15844 0 0 0
-54.579826 -107.33905 -33.15844 0 0 0
-54.461197 -106.74757 -32.858444 0 0 0
-54.856987 -104.02208 -33.15844 0 0 0
-55.182549 -103.42387 -32.933441 0 0 0
-55.948288 -102.48701 -33.052559 0 0 0
-56.784615 -101.73203 -33.371948 0 0 0
-56.739353 -101.83823 -32.933441 0 0 0
-54.414391 -106.29757 -32.858444 0 0 0
-54.425911 -105.62257 -32.933441 0 0 0
-61.43745 -101.48122 -33.273487 0 0 0
-61.42329 -101.61204 -33.008442 0 0 0
-61.167389 -101.46989 -33.008442 0 0 0
-60.797855 -101.22559 -33.022583 0 0 0
-60.523289 -101.09419 -33.008442 0 0 0
-58.573288 -101.03999 -33.008442 0 0 0
-57.977173 -101.24434 -33.011383 0 0 0
-57.655979 -101.21655 -33.297287 0 0 0
-57.523289 -101.19757 -33.414906 0 0 0
-57.209045 -101.48762 -33.260681 0 0 0
-57.400513 -101.46383 -33.008442 0 0 0
-62.011147 -109.33774 -34.947186 0 0 0
-62.50219 -108.87921 -34.940536 0 0 0
-60.828205 -110.13916 -34.661175 0 0 0
-60.084053 -110.24503 -34.943211 0 0 0
-59.473289 -110.43486 -34.636581 0 0 0
-61.283928 -109.75093 -35.063736 0 0 0
-61.560165 -109.77248 -34.670589 0 0 0
-63.249863 -107.77178 -34.943874 0 0 0
-62.919022 -108.28467 -35.043076 0 0 0
-63.46397 -107.21708 -34.958443 0 0 0
-63.444977 -107.57494 -34.65844 0 0 0
-63.750954 -106.29757 -34.632771 0 0 0
-63.759956 -105.84756 -34.642757 0 0 0
-63.589325 -105.18739 -34.958443 0 0 0
-63.514755 -104.61383 -34.782654 0 0 0
-62.91774 -103.45757 -34.934025 0 0 0
-59.023289 -110.44328 -34.639732 0 0 0
-58.498291 -110.27913 -34.958443 0 0 0
-58.123287 -110.22131 -34.928047 0 0 0
-57.823288 -109.97578 -35.256828 0 0 0
-57.328625 -109.88686 -35.054169 0 0 0
-57.748287 -110.21458 -34.650734 0 0 0
-56.68404 -109.56328 -34.964008 0 0 0
-56.92329 -109.85327 -34.675472 0 0 0
-56.156761 -109.16383 -34.930016 0 0 0
-55.715073 -108.67023 -34.978058 0 0 0
-55.412842 -108.1301 -35.127075 0 0 0
-55.169197 -107.81662 -34.969131 0 0 0
-55.271317 -108.24757 -34.654408 0 0 0
-54.885559 -107.40768 -34.649849 0 0 0
-54.86319 -106.95063 -34.961838 0 0 0
-54.67675 -106.59756 -34.65844 0 0 0
-54.758614 -106.31624 -34.958443 0 0 0
-54.800426 -105.67178 -35.022408 0 0 0
-54.852364 -104.74162 -34.730057 0 0 0
-55.473083 -103.11496 -35.149109 0 0 0
-55.521294 -102.69757 -35.10844 0 0 0
-55.442825 -103.06931 -34.808441 0 0 0
-55.536709 -102.69757 -34.808441 0 0 0
-55.572887 -102.39757 -34.808441 0 0 0
-54.637268 -105.99757 -34.65844 0 0 0
-60.470562 -108.98688 -36.598717 0 0 0
-60.073288 -109.05161 -36.656017 0 0 0
-59.773293 -109.3058 -36.471367 0 0 0
-59.845379 -108.76591 -36.931458 0 0 0
-62.198586 -107.62197 -36.482288 0 0 0
-62.364544 -106.80679 -36.645561 0 0 0
-61.858265 -107.04541 -36.975788 0 0 0
-62.12151 -106.29757 -36.946419 0 0 0
-60.939827 -108.71167 -36.618862 0 0 0
-61.272488 -108.32555 -36.723175 0 0 0
-61.575531 -107.95512 -36.772636 0 0 0
-61.723289 -107.51008 -36.908443 0 0 0
-62.58144 -106.14757 -36.567638 0 0 0
-62.287388 -105.69757 -36.876785 0 0 0
-62.285591 -105.39757 -36.871475 0 0 0
-62.59267 -105.54757 -36.577888 0 0 0
-62.284542 -105.09756 -36.855286 0 0 0
-62.771099 -105.24757 -36.334583 0 0 0
-59.173286 -109.26277 -36.572884 0 0 0
-59.173286 -108.94437 -36.864014 0 0 0
-58.573288 -109.15979 -36.6194 0 0 0
-58.573288 -108.8455 -36.90361 0 0 0
-57.94949 -109.14333 -36.445728 0 0 0
-57.827103 -108.57294 -36.898205 0 0 0
-57.3755 -108.85823 -36.464565 0 0 0
-57.075409 -108.31624 -36.723717 0 0 0
-56.770771 -107.95083 -36.752277 0 0 0
-56.176338 -107.64851 -36.456993 0 0 0
-56.773289 -107.49757 -36.986755 0 0 0
-56.462578 -107.04757 -36.927498 0 0 0
-56.039742 -107.06516 -36.588486 0 0 0
-55.981796 -106.59756 -36.645935 0 0 0
-56.120152 -105.99757 -36.804432 0 0 0
-56.285328 -105.24757 -36.949066 0 0 0
-55.816689 -105.81007 -36.515617 0 0 0
-56.281441 -104.79757 -36.972164 0 0 0
-55.996922 -104.94757 -36.624229 0 0 0
-56.229065 -104.49757 -36.908443 0 0 0
-56.018471 -104.49757 -36.60844 0 0 0
-60.952621 -107.66951 -29.070036 0 0 0
-59.968536 -108.29497 -29.099405 0 0 0
-60.523289 -107.94131 -29.035732 0 0 0
-60.343735 -107.53719 -28.811556 0 0 0
-59.678169 -107.94402 -28.867817 0 0 0
-61.123291 -107.19757 -28.952631 0 0 0
-60.518208 -107.11049 -28.714495 0 0 0
-61.622719 -106.64699 -29.098869 0 0 0
-60.931007 -106.89757 -28.799213 0 0 0
-61.211136 -106.42157 -28.843681 0 0 0
-61.751694 -105.84756 -29.091875 0 0 0
-61.291924 -105.99757 -28.853178 0 0 0
-61.281509 -105.54502 -28.869278 0 0 0
-61.560036 -105.16762 -29.060696 0 0 0
-61.420895 -104.67305 -29.118145 0 0 0
-60.942039 -105.09756 -28.787813 0 0 0
-60.818134 -104.69172 -28.856552 0 0 0
-60.823288 -104.19757 -29.002813 0 0 0
-60.373497 -104.35877 -28.820324 0 0 0
-59.783131 -104.32866 -28.72716 0 0 0
-60.69556 -103.90309 -29.104767 0 0 0
-60.073288 -103.89757 -28.933083 0 0 0
-59.285789 -104.21161 -28.731647 0 0 0
-59.848289 -103.44167 -29.140408 0 0 0
-59.473289 -103.59756 -28.999331 0 0 0
-59.173286 -108.39757 -29.090126 0 0 0
-58.573288 -108.38406 -29.115124 0 0 0
-59.173286 -107.96642 -28.853645 0 0 0
-58.573288 -108.09756 -28.954525 0 0 0
-58.284042 -107.61679 -28.786327 0 0 0
-57.673286 -107.72256 -29.003681 0 0 0
-57.767883 -107.31285 -28.815687 0 0 0
-57.090527 -107.19757 -29.060894 0 0 0
-57.386288 -106.75426 -28.827658 0 0 0
-56.783508 -106.69283 -29.122013 0 0 0
-57.302574 -106.10507 -28.776545 0 0 0
-57.374512 -105.32257 -28.805727 0 0 0
-57.677197 -104.66522 -28.818481 0 0 0
-57.073288 -104.79422 -29.030674 0 0 0
-58.25853 -104.05559 -28.878685 0 0 0
-57.451717 -104.19417 -29.088203 0 0 0
-56.791153 -105.99757 -29.032328 0 0 0
-56.92329 -105.54757 -28.977894 0 0 0
-56.814995 -105.09756 -29.096769 0 0 0
-58.873291 -103.95163 -28.830605 0 0 0
-59.098289 -103.47371 -29.063007 0 0 0
-58.573288 -103.4935 -29.101353 0 0 0
-57.989273 -103.59756 -29.16333 0 0 0
-61.734955 -109.29757 -30.908442 0 0 0
-62.353806 -108.71455 -30.886703 0 0 0
-63.174248 -107.36005 -30.900742 0 0 0
-60.523289 -101.91642 -30.908442 0 0 0
-60.057259 -101.79183 -30.907261 0 0 0
-57.988773 -109.91494 -30.878643 0 0 0
-56.784561 -109.38497 -30.922726 0 0 0
-56.173286 -108.85348 -30.885918 0 0 0
-55.112602 -104.96341 -30.880775 0 0 0
-55.235054 -104.49757 -30.908442 0 0 0
-58.291435 -101.78387 -30.89595 0 0 0
-57.658222 -102.00108 -30.886494 0 0 0
-61.773613 -109.93114 -32.708443 0 0 0
-62.686836 -102.63435 -32.708443 0 0 0
-58.273289 -110.5709 -32.708443 0 0 0
-57.046654 -110.16193 -32.708443 0 0 0
-54.540897 -107.12701 -32.708443 0 0 0
-54.520321 -104.98955 -32.708443 0 0 0
-60.523289 -110.31219 -34.508442 0 0 0
-63.151978 -108.25389 -34.52877 0 0 0
-62.960995 -103.23821 -34.508442 0 0 0
-62.800529 -102.99757 -34.508442 0 0 0
-60.959084 -101.46033 -32.75412 0 0 0
-60.523289 -101.29526 -32.708443 0 0 0
-60.523289 -101.19757 -32.899086 0 0 0
-60.043861 -101.18893 -32.700691 0 0 0
-59.473289 -101.10555 -32.708443 0 0 0
-54.931286 -104.19757 -34.508442 0 0 0
-55.660858 -102.55402 -34.508442 0 0 0
-55.858028 -102.09756 -34.508442 0 0 0
-55.723289 -102.09756 -34.636379 0 0 0
-58.873291 -101.13571 -32.708443 0 0 0
-60.96452 -109.02271 -36.328484 0 0 0
-61.905674 -108.27913 -36.325249 0 0 0
-62.632336 -107.02496 -36.326492 0 0 0
-61.440929 -108.71089 -36.332878 0 0 0
-62.658356 -104.79757 -36.347794 0 0 0
-56.754768 -108.56049 -36.314301 0 0 0
-56.323288 -108.13331 -36.308441 0 0 0
-55.738831 -107.06354 -36.286121 0 0 0
-55.693348 -105.18288 -36.339428 0 0 0
-56.023289 -104.19757 -36.605042 0 0 0
-55.836926 -104.19757 -36.308441 0 0 0
-55.852146 -103.89757 -36.308441 0 0 0
-59.623291 -106.59756 -37.916584 0 0 0
-60.258644 -105.99757 -38.10844 0 0 0
-60.523289 -105.99757 -37.909492 0 0 0
-59.92329 -106.14758 -38.10844 0 0 0
-59.623291 -106.19917 -38.10844 0 0 0
-59.92329 -106.29757 -37.986771 0 0 0
-59.623291 -106.29757 -38.036556 0 0 0
-59.173286 -106.59756 -37.928749 0 0 0
-59.173286 -106.19473 -38.10844 0 0 0
-59.173286 -106.29757 -38.042995 0 0 0
-58.573288 -106.12271 -38.10844 0 0 0
-58.573288 -106.29757 -37.997299 0 0 0
-58.123287 -105.99855 -38.111553 0 0 0
-58.123287 -106.29757 -37.882465 0 0 0
-57.823288 -105.84731 -38.10844 0 0 0
-57.523289 -105.70384 -38.10844 0 0 0
-57.223289 -105.59808 -38.10844 0 0 0
-60.636829 -106.45025 -28.631834 0 0 0
-59.773293 -107.34756 -28.638798 0 0 0
-60.053802 -106.72755 -28.530638 0 0 0
-59.484264 -106.75864 -28.474928 0 0 0
-60.823288 -105.99757 -28.654049 0 0 0
-60.823288 -105.54757 -28.676506 0 0 0
-60.390045 -105.99757 -28.532328 0 0 0
-59.92329 -106.29757 -28.442822 0 0 0
-59.473289 -106.29757 -28.406847 0 0 0
-59.773293 -105.84756 -28.434692 0 0 0
-60.370468 -105.31454 -28.577862 0 0 0
-59.849998 -105.2459 -28.482586 0 0 0
-60.073288 -104.79757 -28.602055 0 0 0
-59.473289 -104.82035 -28.518887 0 0 0
-59.398289 -105.24757 -28.442799 0 0 0
-59.323288 -107.34756 -28.602825 0 0 0
-58.873291 -107.49757 -28.657711 0 0 0
-58.861412 -107.0397 -28.543201 0 0 0
-58.273289 -106.97256 -28.604517 0 0 0
-58.873291 -106.44757 -28.429203 0 0 0
-57.823288 -106.74757 -28.661922 0 0 0
-59.173286 -105.84756 -28.39122 0 0 0
-58.300945 -106.29757 -28.484163 0 0 0
-58.573288 -105.84756 -28.433931 0 0 0
-58.873291 -105.22939 -28.454067 0 0 0
-58.273811 -105.02705 -28.575665 0 0 0
-57.673286 -106.29757 -28.64187 0 0 0
-57.980892 -105.83493 -28.551767 0 0 0
-57.823288 -105.24757 -28.650711 0 0 0
-58.873291 -104.81461 -28.53196 0 0 0
-58.573288 -104.42256 -28.682854 0 0 0
-58.123287 -104.49757 -28.718731 0 0 0
-55.454281 -103.04939 -34.508442 0 0 0
0 0 0 1 0 0 0 1 0 0 0 1 0 0 0 0 0 790 1 0 0
