ply
format ascii 1.0
comment PCL generated
element vertex 857
property float x
property float y
property float z
property uchar red
property uchar green
property uchar blue
element camera 1
property float view_px
property float view_py
property float view_pz
property float x_axisx
property float x_axisy
property float x_axisz
property float y_axisx
property float y_axisy
property float y_axisz
property float z_axisx
property float z_axisy
property float z_axisz
property float focal
property float scalex
property float scaley
property float centerx
property float centery
property int viewportx
property int viewporty
property float k1
property float k2
end_header
65.005371 -105.39893 -43.791809 0 0 0
65.360039 -104.79757 -43.85059 0 0 0
65.30751 -104.34756 -43.742867 0 0 0
64.959892 -104.04757 -43.484386 0 0 0
65.30323 -103.44757 -43.751465 0 0 0
65.353859 -102.99757 -43.864143 0 0 0
65.023926 -102.70341 -43.713875 0 0 0
65.311478 -107.34136 -45.767273 0 0 0
65.31926 -107.04757 -45.315746 0 0 0
65.362053 -107.75209 -47.333443 0 0 0
65.046577 -107.90482 -46.91291 0 0 0
65.167252 -100.91698 -45.141483 0 0 0
64.998978 -99.955734 -46.958443 0 0 0
65.012817 -107.5438 -49.439224 0 0 0
65.316254 -107.57491 -48.847176 0 0 0
65.182533 -107.8016 -48.420349 0 0 0
65.17672 -100.17638 -48.908443 0 0 0
65.087891 -100.07333 -48.60844 0 0 0
65.012108 -106.44666 -50.697044 0 0 0
65.185669 -105.8083 -51.015984 0 0 0
65.303574 -107.5919 -46.347359 0 0 0
65.022461 -106.74757 -44.696041 0 0 0
65.178635 -106.29965 -44.408443 0 0 0
65.033188 -100.0891 -46.495392 0 0 0
65.151093 -101.22121 -44.758488 0 0 0
65.053604 -101.65294 -44.293854 0 0 0
65.325211 -107.79225 -47.858444 0 0 0
65.14537 -100.03289 -48.15844 0 0 0
65.334038 -106.76434 -50.132893 0 0 0
65.20369 -102.71924 -51.608444 0 0 0
65.095955 -105.86266 -44.074089 0 0 0
65.036934 -102.26624 -43.912857 0 0 0
65.043457 -100.32788 -45.91502 0 0 0
65.026718 -107.99413 -47.558441 0 0 0
65.021431 -99.905792 -47.558441 0 0 0
65.332535 -107.04757 -49.80265 0 0 0
64.936172 -105.54757 -51.32621 0 0 0
65.189369 -105.12718 -51.308441 0 0 0
65.329437 -104.64757 -51.313099 0 0 0
65.059998 -104.19757 -51.571609 0 0 0
65.052811 -103.89757 -51.560829 0 0 0
65.365067 -103.67256 -51.31356 0 0 0
65.22538 -103.29757 -51.340855 0 0 0
60.959877 -106.43919 -43.782669 0 0 0
61.576717 -106.71159 -43.779106 0 0 0
62.026718 -106.72751 -43.72731 0 0 0
62.626717 -106.73348 -43.716537 0 0 0
63.264217 -106.87842 -43.916805 0 0 0
63.849525 -106.57243 -43.819912 0 0 0
60.526157 -105.69397 -43.581028 0 0 0
59.638023 -105.25224 -43.9636 0 0 0
60.076717 -105.53442 -43.751274 0 0 0
59.59449 -104.79757 -43.85107 0 0 0
60.185951 -105.09756 -43.526829 0 0 0
60.058037 -104.54779 -43.505035 0 0 0
60.517719 -104.63531 -43.272816 0 0 0
59.629326 -104.12257 -43.75922 0 0 0
60.568966 -104.04757 -43.199677 0 0 0
59.622795 -103.44757 -43.802902 0 0 0
60.024437 -103.89757 -43.477707 0 0 0
60.062149 -103.46868 -43.50383 0 0 0
60.518658 -103.4622 -43.27459 0 0 0
59.792747 -102.84756 -43.828697 0 0 0
60.239441 -102.84048 -43.536583 0 0 0
60.108627 -102.22615 -43.827881 0 0 0
60.529819 -101.98697 -43.698578 0 0 0
61.276714 -106.11496 -43.482494 0 0 0
61.951714 -106.34157 -43.483128 0 0 0
61.576717 -105.83972 -43.278786 0 0 0
60.976715 -105.83818 -43.444134 0 0 0
61.149055 -105.44157 -43.230759 0 0 0
62.026718 -105.80429 -43.199242 0 0 0
62.626717 -106.36543 -43.470104 0 0 0
62.476715 -105.81369 -43.185287 0 0 0
63.13982 -105.83606 -43.255322 0 0 0
60.800369 -105.09756 -43.237362 0 0 0
63.212112 -106.31673 -43.49744 0 0 0
63.676716 -106.1875 -43.527725 0 0 0
64.126709 -106.29757 -43.744942 0 0 0
63.938938 -105.69964 -43.390491 0 0 0
64.589722 -105.84756 -43.727707 0 0 0
64.621445 -105.23299 -43.50145 0 0 0
64.276718 -105.24757 -43.339508 0 0 0
63.834892 -105.1185 -43.148289 0 0 0
64.417023 -104.66283 -43.279106 0 0 0
64.883484 -104.62427 -43.499313 0 0 0
64.385925 -104.04757 -43.196445 0 0 0
60.852364 -102.85799 -43.240349 0 0 0
60.96595 -102.16739 -43.447403 0 0 0
61.413544 -102.21951 -43.299812 0 0 0
61.501717 -101.6086 -43.541107 0 0 0
62.237648 -101.9529 -43.291656 0 0 0
62.876747 -102.08878 -43.212215 0 0 0
64.380951 -103.59756 -43.203518 0 0 0
64.931 -103.59756 -43.475155 0 0 0
64.719009 -103.13435 -43.433964 0 0 0
64.252281 -103.13295 -43.216698 0 0 0
63.825626 -102.32257 -43.287651 0 0 0
64.132622 -102.69032 -43.26358 0 0 0
63.376717 -102.28323 -43.191395 0 0 0
63.226715 -101.79757 -43.382408 0 0 0
63.849091 -101.88333 -43.493679 0 0 0
64.522552 -102.56454 -43.473267 0 0 0
64.4086 -101.96467 -43.687431 0 0 0
60.976715 -101.36192 -43.761238 0 0 0
61.226246 -101.19757 -43.808441 0 0 0
61.726715 -101.17033 -43.796089 0 0 0
62.263046 -101.49213 -43.515594 0 0 0
62.251717 -100.98735 -43.892315 0 0 0
62.898155 -101.48366 -43.512581 0 0 0
62.926716 -100.93651 -43.946625 0 0 0
63.526718 -101.52628 -43.602749 0 0 0
64.15239 -101.52466 -43.826355 0 0 0
63.513084 -101.0506 -43.966522 0 0 0
59.138649 -106.71423 -45.60844 0 0 0
59.324036 -106.65749 -45.243343 0 0 0
59.503239 -107.17316 -45.737144 0 0 0
59.933327 -107.3726 -45.45594 0 0 0
60.551933 -107.83975 -45.622414 0 0 0
60.512527 -107.48905 -45.045414 0 0 0
59.905609 -106.90522 -44.851627 0 0 0
60.861412 -107.80701 -45.292027 0 0 0
61.028683 -108.08282 -45.724785 0 0 0
61.716263 -108.15716 -45.4655 0 0 0
61.276714 -107.97749 -45.308441 0 0 0
61.426716 -107.7052 -44.833168 0 0 0
62.401714 -108.34066 -45.736275 0 0 0
62.514214 -108.08255 -45.202496 0 0 0
62.026718 -107.86066 -44.877655 0 0 0
62.911961 -108.33126 -45.75 0 0 0
61.000038 -107.58424 -44.858444 0 0 0
63.244606 -108.0872 -45.323074 0 0 0
63.526718 -108.26795 -45.833443 0 0 0
63.30172 -107.83109 -44.929779 0 0 0
63.705467 -108.04552 -45.448936 0 0 0
64.082275 -108.13588 -45.939743 0 0 0
63.976715 -107.76857 -45.121384 0 0 0
64.414856 -107.84836 -45.613121 0 0 0
64.681168 -107.5005 -45.265167 0 0 0
64.858902 -107.19757 -45.008442 0 0 0
58.865631 -106.31502 -45.565861 0 0 0
59.017628 -106.14663 -45.154808 0 0 0
58.613327 -105.86305 -45.579491 0 0 0
58.304203 -105.23401 -45.756039 0 0 0
58.710735 -105.55619 -45.152271 0 0 0
58.499119 -104.96104 -45.168804 0 0 0
58.243729 -104.49757 -45.483177 0 0 0
58.223415 -104.04757 -45.472954 0 0 0
58.537659 -104.49757 -44.95079 0 0 0
58.603226 -104.04757 -44.820442 0 0 0
58.265312 -103.44757 -45.450165 0 0 0
58.610195 -103.59756 -44.8241 0 0 0
58.227737 -102.88507 -45.777702 0 0 0
58.408569 -102.99757 -45.308441 0 0 0
58.563599 -103.16542 -44.996292 0 0 0
58.747009 -102.42696 -45.12191 0 0 0
58.515114 -102.24757 -45.60844 0 0 0
58.805969 -101.81838 -45.466125 0 0 0
65.440117 -103.89757 -43.808441 0 0 0
58.861485 -101.45164 -45.772774 0 0 0
59.160034 -101.47551 -45.266731 0 0 0
59.758289 -107.80276 -47.204422 0 0 0
59.176716 -101.94109 -44.866486 0 0 0
60.224503 -108.09973 -47.333443 0 0 0
60.220703 -108.0183 -46.671772 0 0 0
59.281624 -107.3914 -47.258442 0 0 0
59.030811 -107.03066 -46.637146 0 0 0
58.846024 -106.91632 -47.258442 0 0 0
58.554401 -106.50809 -47.333443 0 0 0
59.320351 -101.02483 -45.590706 0 0 0
59.584435 -101.36787 -44.875858 0 0 0
59.756683 -100.94075 -45.119507 0 0 0
59.912918 -100.58465 -45.383671 0 0 0
58.53231 -106.42308 -46.808441 0 0 0
60.399654 -100.49583 -44.94503 0 0 0
60.361259 -100.02243 -45.817581 0 0 0
59.454414 -107.40059 -46.419804 0 0 0
60.837059 -108.38496 -47.258442 0 0 0
61.126717 -108.44249 -46.808571 0 0 0
61.501717 -108.57005 -47.145943 0 0 0
60.676716 -108.24995 -46.65844 0 0 0
62.097771 -108.67987 -47.515732 0 0 0
62.026718 -108.6373 -46.958443 0 0 0
62.626717 -108.64915 -46.883438 0 0 0
62.926716 -108.68028 -47.483444 0 0 0
60.83091 -100.05524 -45.350525 0 0 0
63.226715 -108.61107 -46.958443 0 0 0
63.526718 -108.59729 -47.408443 0 0 0
60.976715 -100.26299 -44.889366 0 0 0
63.676716 -108.53079 -46.958443 0 0 0
64.119919 -108.43388 -47.558441 0 0 0
64.100739 -108.42314 -47.10844 0 0 0
61.501717 -100.02913 -45.082989 0 0 0
64.116623 -108.3349 -46.641525 0 0 0
61.422371 -99.674896 -45.740967 0 0 0
61.951714 -99.893547 -45.129822 0 0 0
64.576714 -108.24691 -47.408443 0 0 0
64.576714 -108.19888 -46.958443 0 0 0
62.026718 -99.699379 -45.463203 0 0 0
62.326714 -99.466782 -45.965565 0 0 0
62.476715 -99.801727 -45.179886 0 0 0
57.942242 -104.9423 -47.254845 0 0 0
57.920734 -104.79757 -46.808441 0 0 0
58.100163 -105.35492 -46.65844 0 0 0
57.81929 -104.34756 -47.333443 0 0 0
57.831154 -104.12257 -46.920944 0 0 0
63.001717 -99.753792 -45.389057 0 0 0
62.776714 -99.559097 -45.758442 0 0 0
63.001717 -100.02749 -44.926044 0 0 0
58.359291 -106.13989 -47.716248 0 0 0
65.326462 -100.73495 -45.60844 0 0 0
64.812424 -100.65776 -45.122902 0 0 0
58.271828 -105.99757 -47.057312 0 0 0
58.301964 -105.84436 -46.524574 0 0 0
63.981758 -99.975235 -45.467651 0 0 0
63.449112 -100.26305 -44.784672 0 0 0
58.107822 -105.54757 -47.295944 0 0 0
64.128067 -100.43759 -44.875889 0 0 0
63.517891 -99.752777 -45.593971 0 0 0
57.766174 -103.74757 -47.40844 0 0 0
64.605873 -100.2795 -45.488922 0 0 0
57.861618 -103.82257 -46.583443 0 0 0
57.792351 -103.29757 -47.558441 0 0 0
57.816021 -103.29757 -46.958443 0 0 0
57.850464 -102.99757 -47.258442 0 0 0
57.934738 -102.84396 -46.808441 0 0 0
57.957245 -102.60498 -47.258442 0 0 0
57.994904 -102.57639 -47.625458 0 0 0
58.094337 -102.39757 -46.65844 0 0 0
58.257195 -102.2305 -47.816078 0 0 0
58.18573 -102.09756 -47.10844 0 0 0
58.326523 -101.86711 -47.10844 0 0 0
58.603245 -101.6938 -47.684883 0 0 0
58.188557 -102.09756 -46.808441 0 0 0
58.313599 -101.85722 -46.808441 0 0 0
62.176716 -96.675224 -45.308441 0 0 0
58.769409 -101.30623 -46.957855 0 0 0
58.871651 -101.29549 -47.408443 0 0 0
59.240116 -100.78368 -47.648441 0 0 0
59.502357 -100.51636 -46.965714 0 0 0
59.585129 -100.39776 -47.408443 0 0 0
60.001648 -99.930984 -47.408443 0 0 0
60.015862 -99.94352 -47.10844 0 0 0
60.063675 -99.984123 -46.670967 0 0 0
60.333668 -99.671776 -47.408443 0 0 0
60.395576 -99.691658 -46.915794 0 0 0
65.763657 -106.88197 -45.721527 0 0 0
65.954239 -106.4173 -45.449478 0 0 0
65.968781 -106.01036 -45.069836 0 0 0
66.386978 -105.84146 -45.604084 0 0 0
60.676716 -99.490562 -47.408443 0 0 0
60.860466 -99.478836 -46.987232 0 0 0
60.948963 -99.397568 -47.408443 0 0 0
66.314056 -105.42714 -45.148586 0 0 0
66.641235 -104.98756 -45.47361 0 0 0
66.386856 -104.92337 -44.993645 0 0 0
63.810486 -99.373444 -47.408443 0 0 0
63.808201 -99.368439 -47.10844 0 0 0
63.685158 -99.459961 -46.535458 0 0 0
66.746475 -104.36253 -45.456619 0 0 0
64.449371 -99.602448 -47.558441 0 0 0
64.436417 -99.617371 -47.079239 0 0 0
64.424286 -99.703964 -46.652771 0 0 0
66.416328 -104.31007 -44.887955 0 0 0
66.755844 -103.74962 -45.452507 0 0 0
61.276714 -99.318108 -47.408443 0 0 0
61.426716 -99.300484 -47.10844 0 0 0
61.726715 -99.239731 -47.408443 0 0 0
66.402603 -103.37257 -44.89772 0 0 0
61.726715 -99.269951 -46.808441 0 0 0
66.67923 -103.14757 -45.455772 0 0 0
66.477875 -102.4734 -45.458443 0 0 0
66.268036 -102.54757 -45.036156 0 0 0
66.376717 -102.94778 -44.984451 0 0 0
62.026718 -99.214569 -47.10844 0 0 0
62.326714 -99.198235 -47.408443 0 0 0
66.150772 -102.11091 -45.15844 0 0 0
66.443008 -102.09201 -45.752457 0 0 0
62.326714 -99.218994 -46.808441 0 0 0
66.149284 -101.80353 -45.465218 0 0 0
62.814217 -99.22419 -46.958443 0 0 0
62.776714 -99.211685 -47.408443 0 0 0
65.605148 -101.37907 -45.131683 0 0 0
66.693481 -102.57067 -45.855598 0 0 0
65.975143 -101.33716 -45.773277 0 0 0
63.226715 -99.257683 -47.408443 0 0 0
63.376717 -99.263741 -47.10844 0 0 0
63.376717 -99.298714 -46.808441 0 0 0
65.730438 -107.45287 -47.558441 0 0 0
65.729988 -107.37488 -46.883442 0 0 0
66.080521 -107.0827 -47.745941 0 0 0
66.121017 -106.98238 -46.995941 0 0 0
66.411362 -106.64812 -47.258442 0 0 0
66.725739 -106.13057 -47.558441 0 0 0
66.695358 -106.11119 -46.958443 0 0 0
66.961098 -105.53382 -47.258442 0 0 0
66.882721 -105.47656 -46.578728 0 0 0
67.020615 -105.23938 -46.915573 0 0 0
67.121994 -104.94757 -47.708443 0 0 0
67.131805 -104.79757 -46.958443 0 0 0
67.19606 -104.34756 -47.258442 0 0 0
67.136955 -104.34756 -46.65844 0 0 0
67.194649 -103.74757 -47.558441 0 0 0
67.190979 -103.74757 -47.10844 0 0 0
67.134933 -103.74757 -46.65844 0 0 0
67.119156 -103.14757 -47.258442 0 0 0
67.071182 -103.14757 -46.73344 0 0 0
66.997528 -102.57292 -47.558441 0 0 0
66.95285 -102.57339 -46.963825 0 0 0
66.768394 -101.92947 -47.558441 0 0 0
66.73909 -101.94757 -47.023506 0 0 0
66.607155 -101.82042 -46.65844 0 0 0
66.458603 -101.34756 -47.483444 0 0 0
66.414719 -101.3761 -46.958443 0 0 0
65.790405 -100.5876 -46.970474 0 0 0
66.111847 -100.85389 -47.408443 0 0 0
66.092407 -100.90721 -46.991528 0 0 0
65.82653 -100.54941 -47.408443 0 0 0
65.517555 -100.26439 -47.558441 0 0 0
65.483391 -100.3158 -46.925602 0 0 0
60.290565 -107.80527 -49.174568 0 0 0
59.954674 -107.83983 -48.458443 0 0 0
60.532082 -108.15979 -48.471619 0 0 0
59.156494 -106.92593 -49.046524 0 0 0
58.89323 -106.57419 -49.082172 0 0 0
58.881268 -106.83752 -48.367249 0 0 0
59.187298 -107.18042 -48.478722 0 0 0
59.607254 -107.36697 -49.038719 0 0 0
59.490883 -107.4819 -48.474617 0 0 0
61.715931 -108.38576 -49.045555 0 0 0
61.122837 -108.31943 -48.767441 0 0 0
61.726715 -108.52147 -48.60844 0 0 0
60.666542 -108.05011 -49.072067 0 0 0
61.117668 -108.16399 -49.224625 0 0 0
62.439217 -108.52158 -48.833443 0 0 0
62.334984 -108.34188 -49.356659 0 0 0
62.795914 -108.34272 -49.358444 0 0 0
62.776714 -108.60786 -48.458443 0 0 0
63.076717 -108.43094 -49.042442 0 0 0
63.751717 -108.27007 -49.1017 0 0 0
63.226715 -108.55975 -48.458443 0 0 0
63.73362 -108.4326 -48.562004 0 0 0
64.406723 -107.95934 -49.275124 0 0 0
64.276718 -108.24863 -48.60844 0 0 0
64.726715 -108.03026 -48.625019 0 0 0
64.878853 -107.80671 -49.042007 0 0 0
58.000782 -104.93648 -48.53344 0 0 0
57.997551 -104.34706 -49.036064 0 0 0
57.889557 -104.49757 -48.458443 0 0 0
57.861664 -104.04757 -48.60844 0 0 0
58.361923 -105.83254 -48.767403 0 0 0
58.62793 -106.20845 -48.992111 0 0 0
58.493336 -105.70828 -49.379669 0 0 0
58.241611 -105.39032 -49.043961 0 0 0
58.18689 -105.60724 -48.383442 0 0 0
58.159039 -104.94757 -49.208443 0 0 0
57.992218 -103.72949 -49.042484 0 0 0
57.834793 -103.44757 -48.308441 0 0 0
57.959534 -103.29757 -48.730156 0 0 0
58.007919 -102.99008 -48.550793 0 0 0
58.216629 -102.99757 -49.341785 0 0 0
58.299782 -102.51698 -49.208443 0 0 0
58.188683 -102.69757 -48.908443 0 0 0
58.356621 -102.24757 -48.908443 0 0 0
58.120216 -102.69757 -48.458443 0 0 0
58.436958 -102.10069 -48.439396 0 0 0
58.4594 -102.09756 -49.208443 0 0 0
58.572578 -101.72803 -49.300766 0 0 0
58.576717 -101.79204 -48.868282 0 0 0
58.670071 -101.49757 -49.058441 0 0 0
58.609856 -101.19757 -49.275108 0 0 0
58.835312 -101.04757 -48.785774 0 0 0
58.828514 -101.3035 -48.503708 0 0 0
58.786152 -100.89757 -48.908443 0 0 0
58.928833 -100.59756 -48.683758 0 0 0
65.080528 -99.997566 -48.908443 0 0 0
64.876717 -99.903152 -48.60844 0 0 0
65.64209 -107.05748 -49.335682 0 0 0
65.785034 -107.2063 -48.724113 0 0 0
66.139633 -106.73816 -48.84185 0 0 0
66.092079 -106.59756 -49.23864 0 0 0
66.435425 -106.43816 -48.539719 0 0 0
66.361618 -106.26866 -49.084881 0 0 0
66.378052 -105.88561 -49.46719 0 0 0
66.626617 -105.86331 -48.917351 0 0 0
66.721207 -105.47635 -49.058441 0 0 0
66.878082 -105.54757 -48.446968 0 0 0
66.703804 -104.95241 -49.378075 0 0 0
66.92627 -105.09756 -48.748032 0 0 0
66.99733 -104.5788 -48.730438 0 0 0
66.83165 -104.19757 -49.358444 0 0 0
66.945053 -103.89757 -49.075897 0 0 0
66.932602 -103.46357 -49.05225 0 0 0
67.068619 -103.74757 -48.60844 0 0 0
66.854294 -102.92256 -49.058441 0 0 0
66.952271 -102.82784 -48.617477 0 0 0
67.066635 -103.29757 -48.458443 0 0 0
66.717758 -102.56563 -49.208443 0 0 0
66.807343 -102.39757 -48.758442 0 0 0
66.552895 -102.09756 -49.208443 0 0 0
66.654823 -101.96368 -48.674133 0 0 0
66.312469 -101.63773 -49.233059 0 0 0
66.395294 -101.47874 -48.758442 0 0 0
66.093925 -101.17445 -49.039932 0 0 0
66.186897 -101.06465 -48.473049 0 0 0
65.500046 -100.57321 -49.208443 0 0 0
65.755623 -100.80313 -49.060966 0 0 0
65.78981 -100.59081 -48.437271 0 0 0
65.368027 -100.29757 -49.208443 0 0 0
65.394241 -100.38167 -48.908443 0 0 0
65.455887 -100.31481 -48.467278 0 0 0
59.947906 -106.89405 -50.243549 0 0 0
60.557671 -106.91341 -50.724632 0 0 0
60.497437 -106.57253 -50.988972 0 0 0
60.493256 -107.19754 -50.36591 0 0 0
60.952209 -107.53049 -50.252449 0 0 0
61.146568 -107.07087 -50.871716 0 0 0
61.726715 -107.65063 -50.440132 0 0 0
61.757805 -107.24263 -50.899059 0 0 0
62.326714 -107.77684 -50.379925 0 0 0
62.413136 -107.36292 -50.858444 0 0 0
62.937874 -107.3437 -50.846325 0 0 0
62.776714 -107.77325 -50.375996 0 0 0
63.451717 -107.32951 -50.762642 0 0 0
63.226715 -107.79566 -50.259209 0 0 0
63.976715 -107.20443 -50.708443 0 0 0
63.813133 -107.51865 -50.428185 0 0 0
63.827812 -106.75221 -51.154533 0 0 0
64.409882 -107.07003 -50.58403 0 0 0
64.460602 -106.51836 -51.037697 0 0 0
64.876717 -107.06164 -50.258442 0 0 0
59.16053 -105.75482 -50.428284 0 0 0
58.899284 -105.26137 -50.384113 0 0 0
59.33485 -105.28677 -50.850815 0 0 0
59.465771 -105.8105 -50.718544 0 0 0
59.828438 -106.00011 -50.921516 0 0 0
59.355881 -106.14757 -50.356499 0 0 0
60.076717 -106.57264 -50.708443 0 0 0
60.25647 -106.21059 -51.102821 0 0 0
59.161858 -104.57484 -50.909672 0 0 0
58.869217 -104.57257 -50.57798 0 0 0
58.617989 -104.34756 -50.288414 0 0 0
59.155312 -103.89757 -51.033123 0 0 0
58.88382 -103.74757 -50.708443 0 0 0
58.54686 -103.74757 -50.226715 0 0 0
58.911079 -103.14757 -50.686142 0 0 0
59.176716 -103.52982 -51.024246 0 0 0
59.202927 -103.29757 -50.986626 0 0 0
59.176716 -102.99757 -50.913765 0 0 0
58.629002 -103.22256 -50.286636 0 0 0
59.237114 -102.99757 -51.008442 0 0 0
58.956322 -102.69757 -50.708443 0 0 0
59.176716 -102.86734 -51.008442 0 0 0
58.876717 -102.53067 -50.708443 0 0 0
58.823139 -102.69757 -50.492321 0 0 0
58.77528 -102.39757 -50.408443 0 0 0
65.457306 -106.1342 -50.545773 0 0 0
65.785812 -105.86401 -50.366032 0 0 0
65.534813 -105.69757 -50.768021 0 0 0
65.649841 -105.23096 -50.874222 0 0 0
66.060608 -105.26614 -50.375374 0 0 0
65.735939 -104.64757 -50.966858 0 0 0
66.111496 -104.72256 -50.519005 0 0 0
65.9161 -103.97256 -50.831696 0 0 0
66.043221 -104.34756 -50.67057 0 0 0
66.330994 -104.04757 -50.343781 0 0 0
65.606186 -103.37257 -51.067604 0 0 0
66.135483 -103.44757 -50.533024 0 0 0
65.493362 -102.91801 -51.022217 0 0 0
65.800446 -102.8661 -50.733257 0 0 0
66.083633 -102.79729 -50.398941 0 0 0
65.439659 -102.69757 -51.008442 0 0 0
65.459801 -102.39757 -50.968483 0 0 0
65.613266 -102.39757 -50.708443 0 0 0
65.793007 -102.26021 -50.429398 0 0 0
65.476715 -102.26772 -51.008442 0 0 0
65.55938 -102.09756 -51.008442 0 0 0
65.5653 -102.09756 -50.708443 0 0 0
65.641037 -101.79757 -50.708443 0 0 0
65.651695 -101.79757 -50.408443 0 0 0
65.694275 -101.49757 -50.408443 0 0 0
61.667999 -104.85492 -52.175713 0 0 0
61.276714 -104.20135 -52.208443 0 0 0
61.726715 -104.19757 -52.342865 0 0 0
62.392746 -104.9855 -52.225723 0 0 0
62.326717 -104.49757 -52.314724 0 0 0
62.326714 -104.19757 -52.414612 0 0 0
62.926716 -104.19757 -52.401245 0 0 0
63.076717 -104.70824 -52.268288 0 0 0
63.526291 -104.575 -52.225918 0 0 0
63.376717 -104.19757 -52.338211 0 0 0
63.85899 -104.19757 -52.182064 0 0 0
60.813923 -103.89757 -52.208443 0 0 0
60.976715 -103.97233 -52.208443 0 0 0
61.726715 -104.07008 -52.508442 0 0 0
62.326714 -104.08752 -52.508442 0 0 0
62.926716 -104.07657 -52.508442 0 0 0
63.376717 -103.97944 -52.508442 0 0 0
63.620827 -103.87286 -52.508442 0 0 0
63.676716 -103.89757 -52.383183 0 0 0
63.963459 -103.85577 -52.198456 0 0 0
64.16494 -103.59756 -52.208443 0 0 0
64.276718 -103.51884 -52.208443 0 0 0
61.576714 -105.17256 -43.045277 0 0 0
62.026718 -105.39757 -43.043671 0 0 0
62.701714 -105.39757 -43.039909 0 0 0
60.976715 -104.64757 -43.089157 0 0 0
61.432594 -104.63354 -42.974678 0 0 0
61.126717 -104.19757 -42.998234 0 0 0
61.521645 -104.19757 -42.896721 0 0 0
62.326714 -104.97119 -42.925468 0 0 0
61.911716 -104.6351 -42.893093 0 0 0
63.159164 -104.9419 -42.974884 0 0 0
62.514214 -104.42256 -42.836655 0 0 0
62.026718 -104.19757 -42.827866 0 0 0
63.376717 -105.39757 -43.112503 0 0 0
63.826714 -104.64757 -43.056252 0 0 0
63.147263 -104.33668 -42.8633 0 0 0
63.481262 -104.04757 -42.90641 0 0 0
63.976715 -104.04757 -43.038269 0 0 0
61.126717 -103.67257 -43.023937 0 0 0
61.64286 -103.67257 -42.899982 0 0 0
61.276714 -102.99757 -43.063 0 0 0
61.726715 -102.99757 -42.969254 0 0 0
62.326714 -103.89757 -42.807175 0 0 0
62.021729 -103.44072 -42.868362 0 0 0
62.926716 -103.89757 -42.820618 0 0 0
62.626717 -103.44757 -42.836502 0 0 0
62.326714 -102.97945 -42.904064 0 0 0
61.426716 -102.69757 -43.100323 0 0 0
62.251717 -102.54757 -43.040375 0 0 0
62.885834 -102.83677 -42.952843 0 0 0
63.219666 -103.22832 -42.917015 0 0 0
63.826714 -103.22256 -43.056641 0 0 0
63.526718 -102.69757 -43.076733 0 0 0
60.406162 -107.1881 -44.71946 0 0 0
60.040161 -106.59756 -44.408443 0 0 0
60.47797 -106.77987 -44.275749 0 0 0
62.626717 -107.76764 -44.725052 0 0 0
60.744873 -107.19604 -44.51947 0 0 0
59.812798 -107.67912 -46.358444 0 0 0
60.322754 -107.90408 -46.086571 0 0 0
61.726715 -107.45972 -44.435287 0 0 0
61.426716 -107.20715 -44.246677 0 0 0
58.784607 -106.52902 -46.144558 0 0 0
59.131882 -106.93931 -46.058441 0 0 0
61.264439 -108.32603 -46.197063 0 0 0
61.576717 -108.50455 -46.508442 0 0 0
62.026718 -108.56703 -46.508442 0 0 0
62.018909 -108.43936 -46.069145 0 0 0
62.626717 -108.51898 -46.208443 0 0 0
63.226715 -108.49818 -46.34227 0 0 0
63.660736 -108.42056 -46.386116 0 0 0
62.34893 -107.49757 -44.407242 0 0 0
64.542091 -108.08436 -46.343845 0 0 0
62.926716 -107.4771 -44.42244 0 0 0
64.890915 -107.80744 -46.088989 0 0 0
63.451717 -107.5188 -44.576477 0 0 0
57.97377 -104.64602 -46.351509 0 0 0
63.935448 -107.4814 -44.708443 0 0 0
63.806797 -107.04332 -44.213333 0 0 0
58.002193 -104.19757 -46.034821 0 0 0
58.56823 -106.31268 -46.388123 0 0 0
58.505699 -106.00687 -46.032887 0 0 0
64.405388 -107.25328 -44.716129 0 0 0
64.399879 -106.77797 -44.250557 0 0 0
58.154106 -105.24757 -46.208443 0 0 0
58.001068 -103.74757 -46.032967 0 0 0
59.161186 -105.8329 -44.701424 0 0 0
57.952873 -103.23401 -46.363235 0 0 0
58.041916 -102.79491 -46.345711 0 0 0
58.8881 -105.27812 -44.723656 0 0 0
59.154228 -105.23344 -44.390831 0 0 0
59.621033 -106.30395 -44.54525 0 0 0
59.449837 -105.82991 -44.383888 0 0 0
58.302635 -102.26631 -46.06794 0 0 0
58.350224 -101.93803 -46.398579 0 0 0
58.859154 -104.64757 -44.5499 0 0 0
58.887497 -104.04757 -44.441689 0 0 0
58.867615 -103.44757 -44.513599 0 0 0
58.881817 -102.8062 -44.715267 0 0 0
59.303844 -102.86281 -44.242355 0 0 0
59.254055 -102.32277 -44.520359 0 0 0
59.782162 -101.69014 -44.387478 0 0 0
58.580818 -101.49757 -46.557629 0 0 0
58.614414 -101.55293 -46.208443 0 0 0
58.988945 -101.00504 -46.508442 0 0 0
59.104313 -100.97404 -46.099483 0 0 0
59.582989 -100.40753 -46.508442 0 0 0
59.433655 -100.55212 -46.208443 0 0 0
59.776714 -100.28028 -46.149284 0 0 0
60.247086 -99.931015 -46.283443 0 0 0
60.654854 -99.686844 -46.382072 0 0 0
61.137871 -99.527893 -46.342724 0 0 0
61.726715 -99.436447 -46.195793 0 0 0
63.089611 -99.468521 -46.101101 0 0 0
64.01178 -99.699074 -46.096077 0 0 0
64.556213 -99.956207 -46.066597 0 0 0
60.074913 -101.19527 -44.408443 0 0 0
60.076717 -100.88891 -44.708443 0 0 0
60.372452 -100.89757 -44.405022 0 0 0
62.026718 -99.297806 -46.508442 0 0 0
62.626717 -99.290123 -46.508442 0 0 0
60.676716 -100.57893 -44.600235 0 0 0
61.00705 -100.59756 -44.418251 0 0 0
61.339966 -100.43602 -44.555332 0 0 0
61.726715 -100.70859 -44.221306 0 0 0
62.026718 -100.23895 -44.635971 0 0 0
62.176716 -100.39261 -44.408443 0 0 0
62.476715 -100.03902 -44.765564 0 0 0
62.476715 -100.32039 -44.431911 0 0 0
62.964218 -100.45044 -44.395676 0 0 0
63.620216 -100.59756 -44.427765 0 0 0
64.115082 -101.01408 -44.232147 0 0 0
64.742264 -101.08154 -44.558853 0 0 0
65.758934 -107.18642 -46.33519 0 0 0
66.399048 -106.50979 -46.639771 0 0 0
66.051712 -106.86706 -46.337429 0 0 0
66.236137 -106.45245 -46.048615 0 0 0
66.64592 -105.93134 -46.367592 0 0 0
66.748764 -105.37653 -45.967976 0 0 0
66.952911 -104.76007 -46.143944 0 0 0
67.05825 -104.79757 -46.508442 0 0 0
67.011566 -104.19757 -46.07354 0 0 0
67.003082 -103.74757 -46.072731 0 0 0
66.910645 -103.13715 -46.05217 0 0 0
66.910889 -102.798 -46.343781 0 0 0
66.72493 -102.25995 -46.345177 0 0 0
66.368042 -101.63388 -46.208832 0 0 0
66.1054 -101.15997 -46.349567 0 0 0
65.836922 -100.77511 -46.508442 0 0 0
65.607925 -100.76651 -46.030628 0 0 0
65.402634 -100.35985 -46.508442 0 0 0
61.876717 -96.397568 -44.969528 0 0 0
62.176716 -96.397568 -45.005329 0 0 0
62.026718 -96.067825 -44.717007 0 0 0
65.476715 -106.44757 -44.839851 0 0 0
65.793594 -105.83343 -44.699772 0 0 0
65.501427 -105.82577 -44.386204 0 0 0
65.642914 -105.23904 -44.234352 0 0 0
66.083916 -105.21405 -44.699448 0 0 0
66.081726 -104.57257 -44.50943 0 0 0
66.337563 -103.74757 -44.762531 0 0 0
66.072327 -103.89757 -44.408443 0 0 0
65.890106 -103.29757 -44.290421 0 0 0
66.102821 -102.99757 -44.596836 0 0 0
65.91819 -102.55704 -44.566841 0 0 0
65.524971 -101.66158 -44.721931 0 0 0
65.78772 -102.06035 -44.69532 0 0 0
65.447838 -101.92294 -44.436478 0 0 0
59.77668 -107.81126 -47.858704 0 0 0
60.194527 -108.06682 -48.008442 0 0 0
59.280811 -107.39151 -47.858444 0 0 0
58.578205 -106.48399 -48.15844 0 0 0
60.817097 -108.35503 -48.071091 0 0 0
61.276714 -108.49797 -48.15844 0 0 0
61.726715 -108.59485 -48.15844 0 0 0
62.251717 -108.65914 -48.083443 0 0 0
62.626717 -108.67584 -48.008442 0 0 0
63.30172 -108.61851 -47.858444 0 0 0
63.976715 -108.46384 -48.008442 0 0 0
64.247208 -108.33739 -48.15844 0 0 0
64.698952 -108.13586 -48.083443 0 0 0
57.918129 -104.87257 -47.869549 0 0 0
57.799 -104.19757 -47.933441 0 0 0
58.121346 -105.54757 -47.933441 0 0 0
57.789078 -103.74757 -48.008442 0 0 0
57.85553 -102.99757 -47.858444 0 0 0
58.888783 -101.30446 -48.008442 0 0 0
59.040993 -100.89757 -48.308441 0 0 0
59.214092 -100.72025 -48.008442 0 0 0
59.176716 -100.56313 -48.308441 0 0 0
59.205559 -100.29757 -48.36219 0 0 0
59.42289 -99.997566 -48.262413 0 0 0
59.476715 -100.27919 -48.008442 0 0 0
59.715057 -99.910088 -48.008442 0 0 0
64.576714 -99.669296 -48.308441 0 0 0
64.276718 -99.55365 -48.008442 0 0 0
64.876717 -99.881905 -48.308441 0 0 0
64.74324 -99.769379 -48.008442 0 0 0
65.571899 -107.55481 -48.15844 0 0 0
65.853592 -107.27371 -48.308441 0 0 0
66.127434 -106.9633 -48.308441 0 0 0
66.416588 -106.65803 -47.858444 0 0 0
66.704262 -106.05293 -48.260246 0 0 0
66.964005 -105.53614 -47.858444 0 0 0
67.04483 -105.09756 -48.308441 0 0 0
67.111908 -104.64757 -48.308441 0 0 0
67.14415 -103.89757 -48.15844 0 0 0
67.197845 -104.34756 -47.783443 0 0 0
67.090775 -103.07257 -47.97094 0 0 0
66.961014 -102.5661 -48.159683 0 0 0
66.761917 -101.93076 -48.008442 0 0 0
66.376717 -101.21424 -47.858444 0 0 0
65.968826 -100.70131 -47.858444 0 0 0
66.530807 -101.49757 -48.15844 0 0 0
65.513107 -100.26744 -48.008442 0 0 0
60.136887 -107.46384 -49.680481 0 0 0
59.761471 -107.21101 -49.624931 0 0 0
59.327248 -106.76512 -49.617428 0 0 0
59.476715 -106.57677 -50.083218 0 0 0
61.124527 -107.95664 -49.664761 0 0 0
61.453865 -107.80704 -50.12307 0 0 0
61.726715 -108.18292 -49.566917 0 0 0
61.889919 -108.00739 -49.954533 0 0 0
62.326714 -108.03629 -49.973991 0 0 0
62.776714 -108.03688 -49.974525 0 0 0
60.660088 -107.75751 -49.688339 0 0 0
63.237408 -108.1609 -49.649017 0 0 0
63.859497 -107.84556 -49.937912 0 0 0
64.553619 -107.5188 -49.955898 0 0 0
59.069778 -106.14577 -49.968876 0 0 0
58.723457 -105.5565 -49.954773 0 0 0
58.592979 -104.97314 -50.082436 0 0 0
58.372753 -105.0805 -49.620239 0 0 0
58.250126 -104.49757 -49.628601 0 0 0
58.234623 -104.04757 -49.638382 0 0 0
58.253468 -103.44757 -49.627666 0 0 0
58.52013 -102.84756 -49.948673 0 0 0
58.503166 -102.39757 -49.673012 0 0 0
58.66703 -102.39757 -50.10844 0 0 0
58.594814 -102.05327 -50.10844 0 0 0
58.562004 -102.04926 -49.7006 0 0 0
58.553814 -101.79757 -49.808441 0 0 0
65.767166 -106.26622 -50.096695 0 0 0
65.942734 -106.46098 -49.655842 0 0 0
66.118668 -105.83362 -49.922611 0 0 0
66.386475 -105.11011 -49.93766 0 0 0
66.41275 -104.49757 -50.165535 0 0 0
66.568481 -104.04757 -49.941055 0 0 0
66.696968 -104.49757 -49.623016 0 0 0
66.406746 -103.38545 -50.155586 0 0 0
66.713486 -103.44757 -49.636948 0 0 0
66.438095 -102.58807 -49.791103 0 0 0
66.081039 -102.26167 -50.127895 0 0 0
65.791061 -101.76814 -50.143665 0 0 0
66.243134 -101.94278 -49.662811 0 0 0
65.71376 -101.49757 -50.10844 0 0 0
65.697617 -101.19757 -50.10844 0 0 0
65.776718 -101.49757 -49.975239 0 0 0
65.724281 -101.19757 -49.808441 0 0 0
65.776718 -101.25613 -49.73896 0 0 0
65.980377 -101.49757 -49.663399 0 0 0
65.666885 -100.89757 -49.808441 0 0 0
60.168549 -104.96033 -51.62072 0 0 0
60.234863 -105.53618 -51.448864 0 0 0
60.376717 -104.64757 -51.796959 0 0 0
60.025234 -104.49757 -51.638527 0 0 0
59.898613 -104.19757 -51.572567 0 0 0
60.490551 -104.19757 -51.883278 0 0 0
60.349041 -103.89757 -51.908443 0 0 0
60.036369 -103.62044 -51.908443 0 0 0
60.022095 -103.89757 -51.64711 0 0 0
59.865162 -103.59756 -51.608444 0 0 0
59.776714 -103.46309 -51.608444 0 0 0
61.272251 -106.1338 -51.624153 0 0 0
61.723557 -105.78113 -51.89764 0 0 0
60.676716 -105.86125 -51.541336 0 0 0
61.144402 -105.55486 -51.853996 0 0 0
60.736328 -105.24757 -51.812584 0 0 0
62.176716 -106.37286 -51.664928 0 0 0
62.401718 -105.89774 -51.920139 0 0 0
62.701714 -106.42069 -51.649338 0 0 0
62.626717 -105.54757 -52.059029 0 0 0
60.817146 -104.64865 -51.975918 0 0 0
61.276714 -105.09756 -52.046234 0 0 0
61.276714 -104.64757 -52.125961 0 0 0
60.976715 -104.19757 -52.098934 0 0 0
63.076717 -106.40891 -51.62748 0 0 0
63.691364 -106.14543 -51.633316 0 0 0
63.226715 -105.90244 -51.875206 0 0 0
63.076717 -105.54757 -52.031403 0 0 0
63.656631 -105.26779 -51.998066 0 0 0
64.187454 -105.48108 -51.750904 0 0 0
64.576714 -105.55287 -51.549435 0 0 0
63.976715 -104.64757 -52.080963 0 0 0
64.300156 -104.84201 -51.908443 0 0 0
64.695114 -105.02257 -51.654861 0 0 0
64.392944 -104.49757 -51.930176 0 0 0
64.457169 -104.04757 -51.909946 0 0 0
64.897766 -104.64757 -51.619095 0 0 0
60.676716 -103.89757 -52.109539 0 0 0
64.276718 -103.89757 -51.986572 0 0 0
64.276718 -103.59756 -52.064522 0 0 0
64.526703 -103.59756 -51.865734 0 0 0
64.890862 -103.59756 -51.608444 0 0 0
64.576714 -103.33746 -51.908443 0 0 0
64.969551 -102.99757 -51.608444 0 0 0
61.126717 -106.92119 -44.08284 0 0 0
61.993744 -107.18811 -44.106533 0 0 0
62.730965 -107.18576 -44.113876 0 0 0
59.853546 -105.88533 -44.075771 0 0 0
60.234699 -106.28041 -44.039986 0 0 0
59.214962 -104.64757 -44.145844 0 0 0
59.176716 -104.04757 -44.133865 0 0 0
59.2033 -103.44757 -44.15358 0 0 0
59.721558 -102.25799 -44.102013 0 0 0
60.21978 -101.47651 -44.118137 0 0 0
64.715729 -106.27501 -44.048836 0 0 0
59.769447 -107.49757 -45.908443 0 0 0
58.104103 -104.64757 -45.908443 0 0 0
60.676716 -101.19757 -43.956291 0 0 0
60.702503 -100.93271 -44.12561 0 0 0
60.976715 -100.86276 -44.072289 0 0 0
61.276714 -100.8549 -44.067028 0 0 0
62.476715 -100.64615 -44.148232 0 0 0
64.591934 -101.47314 -44.098717 0 0 0
58.576717 -101.79237 -45.908443 0 0 0
59.492397 -100.59756 -45.940334 0 0 0
60.012764 -100.26785 -45.767311 0 0 0
60.676716 -99.832909 -45.908443 0 0 0
65.74131 -104.57257 -44.142174 0 0 0
65.773483 -103.77331 -44.102936 0 0 0
65.482544 -102.58715 -44.103394 0 0 0
58.843628 -106.94073 -47.708443 0 0 0
60.867538 -108.40718 -47.708443 0 0 0
61.426716 -108.57927 -47.708443 0 0 0
59.695213 -100.1582 -47.739288 0 0 0
60.09668 -99.71553 -47.75272 0 0 0
60.376717 -99.553505 -47.708443 0 0 0
60.654907 -99.387352 -47.674782 0 0 0
63.918713 -99.416405 -47.708443 0 0 0
63.976715 -99.397568 -48.00544 0 0 0
61.80172 -99.097565 -47.647892 0 0 0
62.922729 -99.100121 -47.757103 0 0 0
62.476715 -99.097565 -47.637386 0 0 0
63.076717 -99.196747 -47.708443 0 0 0
63.526718 -99.308929 -47.708443 0 0 0
63.864937 -108.09106 -49.493408 0 0 0
58.783318 -106.14757 -49.497887 0 0 0
58.578365 -101.81403 -49.566822 0 0 0
58.573383 -101.53835 -49.498001 0 0 0
66.672432 -102.832 -49.491768 0 0 0
65.820114 -101.13783 -49.508442 0 0 0
65.668137 -100.89757 -49.508442 0 0 0
65.527596 -100.59756 -49.508442 0 0 0
60.96907 -106.43563 -51.328606 0 0 0
61.839218 -106.79543 -51.31929 0 0 0
62.626717 -106.89757 -51.300552 0 0 0
63.226715 -106.79173 -51.314575 0 0 0
59.813881 -105.26019 -51.280861 0 0 0
59.656952 -104.64757 -51.352657 0 0 0
59.485195 -104.19757 -51.308441 0 0 0
59.481838 -103.89757 -51.308441 0 0 0
59.776714 -103.89757 -51.473785 0 0 0
59.521744 -103.59756 -51.276962 0 0 0
59.776714 -103.59756 -51.490242 0 0 0
59.49173 -103.29757 -51.284187 0 0 0
59.476715 -103.23719 -51.308441 0 0 0
64.126717 -106.29979 -51.377068 0 0 0
64.276718 -105.99757 -51.496387 0 0 0
64.738922 -106.0097 -51.225304 0 0 0
64.876717 -103.29757 -51.600613 0 0 0
65.444931 -104.19757 -51.281937 0 0 0
65.209473 -102.99757 -51.308441 0 0 0
65.26046 -102.69757 -51.308441 0 0 0
65.413368 -102.39757 -51.308441 0 0 0
0 0 0 1 0 0 0 1 0 0 0 1 0 0 0 0 0 857 1 0 0
