ply
format ascii 1.0
comment PCL generated
element vertex 789
property float x
property float y
property float z
property uchar red
property uchar green
property uchar blue
element camera 1
property float view_px
property float view_py
property float view_pz
property float x_axisx
property float x_axisy
property float x_axisz
property float y_axisx
property float y_axisy
property float y_axisz
property float z_axisx
property float z_axisy
property float z_axisz
property float focal
property float scalex
property float scaley
property float centerx
property float centery
property int viewportx
property int viewporty
property float k1
property float k2
end_header
65.271324 32.657784 81.741562 0 0 0
65.149361 32.594795 81.306778 0 0 0
65.007965 25.036465 83.016556 0 0 0
64.98793 25.081543 83.391563 0 0 0
65.010178 32.964897 82.716568 0 0 0
64.970673 32.94899 83.241562 0 0 0
65.305618 32.668793 83.391563 0 0 0
65.278641 26.496614 79.88562 0 0 0
65.035141 26.728813 79.485344 0 0 0
65.319672 27.345951 79.387764 0 0 0
65.190933 30.258314 79.191566 0 0 0
65.17672 30.652439 79.269539 0 0 0
65.201363 31.102438 79.442062 0 0 0
65.174637 31.385681 79.527451 0 0 0
65.17672 31.641926 79.877823 0 0 0
65.282249 25.416042 81.441559 0 0 0
65.063293 25.523346 80.858749 0 0 0
65.210281 32.326134 80.919434 0 0 0
65.203964 26.247181 85.220245 0 0 0
65.271957 26.73901 85.582275 0 0 0
65.353683 30.937969 85.670593 0 0 0
65.020569 32.006805 85.03653 0 0 0
65.245804 25.349854 83.691566 0 0 0
65.31517 25.597618 84.153419 0 0 0
65.03495 32.728947 83.830093 0 0 0
64.997345 25.060671 82.079071 0 0 0
65.304672 32.731701 82.36145 0 0 0
65.420403 26.131111 80.434883 0 0 0
65.208298 31.750582 80.09156 0 0 0
65.17672 32.000507 80.391563 0 0 0
65.134216 27.336369 86.059067 0 0 0
65.261185 27.802437 86.159882 0 0 0
65.00312 28.252438 86.445602 0 0 0
65.174606 28.885658 86.391632 0 0 0
65.288231 29.756405 86.210968 0 0 0
65.342331 30.355085 85.990799 0 0 0
65.258759 25.848495 84.669113 0 0 0
65.031143 32.420513 84.438614 0 0 0
64.883156 27.641632 78.934921 0 0 0
65.1017 32.250568 80.691566 0 0 0
65.12532 28.102438 78.983078 0 0 0
64.902863 28.552437 78.820282 0 0 0
65.06813 29.002438 78.908035 0 0 0
65.090256 29.452438 78.945145 0 0 0
65.17672 29.902437 79.097 0 0 0
65.190033 31.277296 79.347916 0 0 0
65.476715 31.693316 84.880829 0 0 0
66.156296 30.952438 84.596252 0 0 0
65.863571 31.314461 84.735077 0 0 0
65.763687 30.989101 85.174202 0 0 0
66.098236 30.640514 84.952698 0 0 0
66.392868 29.602438 85.001831 0 0 0
66.622009 29.03994 84.659531 0 0 0
66.438766 30.063545 84.733292 0 0 0
66.345314 29.152439 85.146057 0 0 0
66.424042 28.627438 85.02179 0 0 0
66.385757 27.978767 84.905876 0 0 0
66.172058 28.252438 85.316254 0 0 0
66.314072 27.477329 84.750153 0 0 0
65.933609 27.048809 85.042877 0 0 0
66.059357 26.802874 84.619354 0 0 0
65.6353 26.447224 84.895584 0 0 0
58.276714 31.423939 81.256302 0 0 0
58.010189 30.933369 81.449631 0 0 0
57.933701 30.490627 81.141563 0 0 0
57.768639 29.902437 81.256439 0 0 0
57.733124 29.411293 81.130211 0 0 0
57.713856 28.852438 81.123199 0 0 0
57.738617 28.419544 81.141563 0 0 0
57.674236 27.945801 81.735306 0 0 0
57.809986 28.027439 81.141563 0 0 0
64.717728 25.084003 81.282921 0 0 0
64.424438 24.798733 81.710526 0 0 0
64.126717 24.872871 80.992363 0 0 0
63.751717 24.673393 81.141563 0 0 0
63.226715 24.520458 81.162407 0 0 0
62.701714 24.385235 81.329056 0 0 0
62.101715 24.321152 81.516563 0 0 0
61.426716 24.447857 81.261177 0 0 0
60.870735 24.550116 81.424896 0 0 0
57.904053 27.367443 81.481827 0 0 0
58.240402 26.781055 81.291565 0 0 0
58.552574 26.467144 80.990982 0 0 0
59.001163 25.831234 81.160591 0 0 0
58.059978 27.505199 80.899696 0 0 0
59.929604 25.09679 81.133835 0 0 0
59.482967 25.407261 81.098564 0 0 0
60.503647 24.840445 80.978477 0 0 0
64.448128 32.579613 84.840439 0 0 0
63.910011 32.902416 84.777588 0 0 0
63.376717 32.942978 85.012245 0 0 0
62.776718 33.25795 84.681274 0 0 0
62.326714 33.202438 84.858597 0 0 0
61.726715 33.187767 84.845169 0 0 0
61.441139 32.913727 85.202797 0 0 0
61.134335 33.12764 84.743156 0 0 0
60.976715 32.852932 85.124168 0 0 0
60.520721 32.838448 84.891563 0 0 0
60.06678 32.737183 84.680435 0 0 0
64.410194 32.212875 85.358589 0 0 0
60.540058 32.476826 85.36525 0 0 0
59.911026 32.291939 85.168114 0 0 0
59.568123 32.332809 84.799286 0 0 0
59.511551 31.985954 85.175461 0 0 0
59.06617 31.83263 84.816322 0 0 0
59.199516 31.674397 85.142639 0 0 0
58.856121 31.283772 85.070808 0 0 0
58.547577 30.806406 85.029396 0 0 0
58.199852 30.361986 84.75209 0 0 0
58.213062 29.752438 85.026413 0 0 0
57.957512 29.152439 84.704384 0 0 0
58.012093 28.412283 84.722076 0 0 0
58.289139 28.232502 85.172119 0 0 0
57.96785 29.727085 84.599335 0 0 0
64.807327 25.772678 85.073174 0 0 0
64.345345 25.405586 84.994308 0 0 0
63.816994 25.202061 85.056648 0 0 0
63.236359 24.825981 84.72908 0 0 0
62.626717 24.741642 84.73378 0 0 0
62.026718 24.735497 84.741562 0 0 0
61.425232 24.98221 85.038872 0 0 0
60.826714 25.049286 84.875893 0 0 0
61.108269 24.739727 84.434921 0 0 0
58.302223 27.674438 84.973656 0 0 0
58.671459 27.336979 85.304901 0 0 0
58.509743 27.064438 84.880371 0 0 0
60.074429 25.287565 84.667015 0 0 0
59.518196 25.83049 84.896667 0 0 0
59.004814 26.341766 84.892456 0 0 0
60.538155 25.342743 85.146072 0 0 0
63.94191 33.460602 82.979065 0 0 0
64.491547 33.219658 83.249207 0 0 0
63.521763 33.509739 83.504417 0 0 0
63.001717 33.676239 83.18531 0 0 0
62.80661 33.79892 82.605286 0 0 0
62.326714 33.685188 83.429062 0 0 0
62.176716 33.819939 82.910782 0 0 0
61.876717 33.835297 82.921333 0 0 0
61.651718 33.723598 83.287292 0 0 0
61.250656 33.808784 82.817566 0 0 0
61.126717 33.668732 83.166565 0 0 0
60.828625 33.462479 83.646042 0 0 0
60.494347 33.454056 83.204056 0 0 0
60.161499 33.174362 83.732605 0 0 0
59.754555 33.051811 83.354065 0 0 0
59.321487 32.753578 83.353859 0 0 0
58.843071 32.411041 82.866562 0 0 0
58.54446 32.041786 83.241562 0 0 0
58.276714 31.684406 83.262268 0 0 0
57.994331 31.251513 82.735313 0 0 0
57.801743 30.802439 83.241562 0 0 0
57.632847 30.359379 83.09156 0 0 0
57.540508 29.789938 83.166565 0 0 0
57.475235 29.414938 82.71656 0 0 0
57.507652 28.852438 83.241562 0 0 0
57.517784 28.402437 82.941559 0 0 0
57.692749 27.695045 83.002304 0 0 0
64.418152 24.740059 83.255676 0 0 0
63.924389 24.505798 82.866562 0 0 0
63.264214 24.34041 83.016563 0 0 0
62.776714 24.249111 82.941559 0 0 0
62.476715 24.253902 83.241562 0 0 0
62.026718 24.2383 83.09156 0 0 0
61.426716 24.320404 83.241562 0 0 0
60.842937 24.467964 83.241234 0 0 0
58.217823 26.472607 82.941559 0 0 0
58.990669 25.527523 82.941559 0 0 0
58.57093 25.995865 83.136093 0 0 0
57.926632 27.064764 83.23951 0 0 0
59.626717 25.021164 82.941559 0 0 0
60.216942 24.717073 83.238617 0 0 0
59.051865 25.573856 83.534897 0 0 0
64.260498 30.945168 86.449463 0 0 0
64.624306 30.630474 86.397621 0 0 0
64.302658 30.373877 86.672775 0 0 0
63.859066 31.383003 86.379616 0 0 0
63.802799 30.9552 86.629829 0 0 0
63.226715 30.952438 86.803726 0 0 0
63.376717 31.529022 86.444946 0 0 0
62.926716 31.280445 86.692413 0 0 0
63.811275 30.274216 86.893318 0 0 0
62.707161 30.635611 86.999153 0 0 0
63.376717 30.321527 87.008461 0 0 0
62.705063 31.742178 86.419769 0 0 0
62.026718 31.75301 86.427727 0 0 0
62.064217 31.249172 86.734268 0 0 0
62.026718 30.627024 87.017822 0 0 0
61.036816 30.943604 86.734924 0 0 0
61.410156 31.550186 86.482307 0 0 0
60.845211 31.433758 86.404175 0 0 0
60.520393 30.957821 86.543686 0 0 0
61.440506 30.65962 86.939293 0 0 0
60.826508 30.352438 86.894272 0 0 0
64.876717 29.752438 86.524826 0 0 0
64.432205 29.735172 86.770386 0 0 0
65.011948 29.302439 86.496246 0 0 0
64.653183 29.302439 86.729507 0 0 0
64.124512 29.152439 86.965378 0 0 0
64.654289 28.627438 86.710381 0 0 0
64.100006 28.702438 86.971123 0 0 0
64.418755 28.102438 86.76252 0 0 0
63.667976 28.249815 87.061996 0 0 0
60.526718 29.886047 86.925331 0 0 0
60.254494 30.246693 86.704788 0 0 0
59.765884 30.340496 86.402489 0 0 0
59.936459 29.752438 86.674316 0 0 0
60.564915 29.452438 87.004883 0 0 0
59.936737 29.152439 86.74427 0 0 0
59.463303 29.723667 86.393707 0 0 0
59.417099 29.152439 86.434013 0 0 0
60.540707 28.852438 87.031761 0 0 0
59.945061 28.627438 86.7491 0 0 0
59.379669 28.478668 86.371994 0 0 0
60.546707 28.248005 86.970039 0 0 0
59.968193 28.177437 86.713364 0 0 0
60.226715 27.736202 86.728821 0 0 0
64.797005 27.621346 86.418304 0 0 0
64.148819 27.665432 86.763702 0 0 0
64.417297 27.052437 86.386055 0 0 0
63.506668 27.664431 86.98008 0 0 0
63.750069 27.065563 86.677414 0 0 0
63.076717 27.398785 86.994354 0 0 0
62.926716 26.902437 86.805061 0 0 0
63.240723 26.476723 86.492516 0 0 0
63.798874 26.585207 86.403168 0 0 0
62.514214 27.438679 87.062126 0 0 0
62.439072 26.761131 86.768509 0 0 0
61.706711 26.759283 86.76886 0 0 0
60.813362 27.676067 86.933708 0 0 0
61.876717 27.329647 87.024063 0 0 0
61.261299 27.352438 86.947586 0 0 0
61.276714 26.789082 86.711266 0 0 0
60.821831 27.050032 86.697433 0 0 0
62.626717 26.123383 86.344162 0 0 0
62.026718 26.118532 86.355179 0 0 0
61.426716 26.038887 86.234818 0 0 0
60.959106 26.464083 86.420563 0 0 0
60.357075 27.340714 86.652725 0 0 0
59.653824 27.802437 86.434769 0 0 0
59.908535 27.218159 86.361061 0 0 0
60.345222 26.738434 86.343918 0 0 0
69.376717 33.802437 80.716705 0 0 0
65.476715 32.078152 80.85321 0 0 0
65.762741 31.687155 80.733101 0 0 0
66.387054 30.622814 80.671768 0 0 0
66.100967 31.419979 80.966141 0 0 0
66.062775 31.158684 80.574158 0 0 0
66.662506 29.751423 80.723984 0 0 0
66.422028 30.209332 80.466568 0 0 0
66.625038 29.002438 80.523483 0 0 0
66.75116 28.716991 80.845551 0 0 0
66.631027 27.961861 80.830276 0 0 0
66.358841 27.533951 80.5271 0 0 0
66.481407 27.219194 81.074127 0 0 0
66.091064 26.764732 80.710381 0 0 0
65.86058 26.302437 80.846176 0 0 0
65.628769 31.849119 84.433365 0 0 0
66.443291 30.499573 84.441559 0 0 0
66.088791 31.528038 83.988754 0 0 0
66.370308 30.947287 84.134155 0 0 0
66.702194 30.077328 84.117203 0 0 0
66.745697 29.452438 84.350479 0 0 0
66.843781 28.852438 84.141563 0 0 0
66.711365 28.402437 84.419075 0 0 0
66.611069 27.961428 84.440979 0 0 0
66.574944 27.427437 84.141563 0 0 0
66.33992 27.096327 84.383087 0 0 0
66.314621 26.743675 84.014908 0 0 0
65.997116 26.446249 84.30661 0 0 0
65.749748 26.0236 84.162193 0 0 0
65.045952 30.802439 78.891563 0 0 0
64.989418 30.502438 78.891563 0 0 0
64.90831 30.202438 78.831345 0 0 0
64.890991 29.752438 78.839828 0 0 0
64.876717 29.302439 78.799637 0 0 0
64.589455 29.177494 78.593552 0 0 0
64.426712 28.402437 78.515495 0 0 0
64.876717 32.428738 80.691566 0 0 0
64.750206 32.60244 80.691566 0 0 0
64.576714 28.102438 78.597855 0 0 0
58.179466 30.877438 80.841568 0 0 0
59.179703 29.313663 78.891563 0 0 0
58.112064 30.502438 80.691566 0 0 0
59.647163 29.002438 78.517883 0 0 0
59.207947 29.002438 78.920364 0 0 0
59.596046 28.627438 78.643707 0 0 0
59.069618 28.702438 79.061218 0 0 0
59.415215 28.102438 78.84491 0 0 0
58.977917 28.177437 79.218338 0 0 0
57.987335 30.079336 80.705292 0 0 0
64.400917 27.802437 78.551712 0 0 0
57.988598 29.377438 80.524246 0 0 0
64.650711 27.076488 79.03096 0 0 0
64.492966 26.698189 79.130936 0 0 0
57.952312 28.552437 80.572403 0 0 0
57.984074 27.999966 80.676666 0 0 0
64.062653 27.264076 78.573975 0 0 0
63.838676 26.591671 78.804688 0 0 0
64.276031 26.208027 79.326126 0 0 0
63.512421 26.272226 78.875435 0 0 0
63.217506 26.740479 78.506317 0 0 0
63.076717 26.168438 78.817261 0 0 0
63.376717 25.886368 79.149391 0 0 0
62.776714 26.482334 78.558075 0 0 0
62.326714 26.474255 78.542297 0 0 0
61.726715 26.414436 78.610641 0 0 0
62.251717 25.526499 79.321655 0 0 0
62.626717 25.98727 78.882111 0 0 0
62.176716 25.972321 78.868217 0 0 0
61.754295 25.982428 78.891563 0 0 0
61.037201 26.236887 78.884819 0 0 0
61.113792 26.730387 78.553001 0 0 0
60.537029 26.731972 78.764771 0 0 0
60.826542 25.970947 79.162323 0 0 0
59.606411 27.501972 78.902435 0 0 0
59.888504 27.802437 78.613548 0 0 0
60.215576 27.191326 78.655144 0 0 0
64.42485 25.256439 80.539307 0 0 0
59.921429 26.738918 79.09436 0 0 0
59.32922 27.020891 79.374756 0 0 0
59.034142 27.612818 79.349251 0 0 0
63.976715 25.016487 80.542404 0 0 0
63.513588 24.785603 80.665955 0 0 0
60.262825 26.272957 79.192589 0 0 0
62.840157 24.893127 80.215813 0 0 0
62.926716 24.643257 80.691566 0 0 0
62.326714 24.535847 80.817307 0 0 0
61.737869 24.55888 80.833649 0 0 0
61.12149 24.715351 80.773766 0 0 0
58.275124 27.727436 80.278839 0 0 0
58.341255 26.897144 80.841568 0 0 0
59.647522 25.759184 80.265175 0 0 0
59.588318 25.52866 80.677902 0 0 0
59.032249 26.158875 80.546127 0 0 0
60.261398 25.100409 80.647522 0 0 0
65.79351 32.317883 82.641563 0 0 0
66.076714 31.983765 82.341568 0 0 0
66.406281 31.520525 82.491562 0 0 0
66.707535 30.92865 82.566559 0 0 0
66.924927 30.22591 82.491562 0 0 0
67.078278 29.377438 82.341568 0 0 0
67.102882 28.852438 82.491562 0 0 0
67.059891 28.252438 82.641563 0 0 0
66.928497 27.652437 82.491562 0 0 0
66.72187 27.068848 82.641563 0 0 0
66.410309 26.483414 82.416565 0 0 0
66.076714 25.97225 82.491562 0 0 0
65.651031 25.528629 82.641563 0 0 0
64.402901 32.917519 84.303223 0 0 0
63.974876 33.204536 84.130615 0 0 0
63.226715 33.424374 84.141785 0 0 0
63.522476 33.154175 84.59156 0 0 0
62.476715 33.509773 84.139359 0 0 0
62.026718 33.340649 84.59156 0 0 0
61.726715 33.518738 84.073792 0 0 0
61.501717 33.354126 84.441559 0 0 0
60.976715 33.35733 84.141563 0 0 0
60.597931 33.114525 84.444633 0 0 0
59.845909 32.877983 84.155022 0 0 0
59.307457 32.51878 84.131584 0 0 0
58.99474 32.044296 84.441559 0 0 0
58.601631 31.778568 84.130676 0 0 0
58.489487 31.24909 84.587799 0 0 0
58.310783 31.333118 84.144157 0 0 0
58.181656 30.817442 84.441559 0 0 0
57.941921 30.339561 84.280853 0 0 0
57.842514 29.902437 84.291565 0 0 0
57.735916 29.377438 84.126862 0 0 0
57.799145 28.552437 84.291565 0 0 0
57.777649 28.031548 83.991562 0 0 0
64.802422 25.371632 84.481773 0 0 0
64.26152 25.03813 84.441559 0 0 0
64.741875 25.116089 83.994202 0 0 0
63.813011 24.858654 84.454147 0 0 0
63.234982 24.599812 84.220947 0 0 0
64.126717 33.420242 82.341568 0 0 0
64.608521 33.202438 82.641563 0 0 0
62.626717 24.49593 84.149437 0 0 0
62.026718 24.472212 84.121544 0 0 0
64.726715 33.111351 82.212036 0 0 0
60.526718 24.868101 84.291565 0 0 0
63.676716 33.619076 82.491562 0 0 0
61.512112 24.570034 84.22995 0 0 0
63.376717 33.690948 82.641563 0 0 0
58.026352 27.662399 84.399979 0 0 0
58.285053 27.064342 84.441559 0 0 0
58.561527 26.473309 84.291656 0 0 0
62.476715 33.886391 82.491562 0 0 0
59.722626 25.315186 84.291565 0 0 0
58.878876 26.005701 84.188751 0 0 0
59.129456 25.955666 84.59156 0 0 0
59.150246 25.684984 84.125931 0 0 0
59.627411 25.215433 83.875839 0 0 0
61.576717 33.877136 82.791565 0 0 0
60.976715 33.778389 82.746582 0 0 0
60.676716 33.654957 82.791565 0 0 0
60.226715 33.430199 82.791565 0 0 0
59.776714 33.222492 82.491562 0 0 0
59.793709 33.191761 82.675705 0 0 0
59.333164 32.866383 82.604065 0 0 0
58.547092 32.100647 82.454071 0 0 0
58.276714 31.742111 82.641563 0 0 0
57.720692 30.670414 82.716568 0 0 0
57.643616 30.347813 82.250992 0 0 0
57.542992 30.052437 82.566559 0 0 0
57.473351 28.702438 82.604065 0 0 0
57.55809 28.102438 82.341568 0 0 0
65.132614 25.102438 82.641563 0 0 0
64.6129 24.783207 82.791565 0 0 0
64.437454 24.719946 82.341568 0 0 0
63.808464 24.470715 82.341568 0 0 0
63.226715 24.30998 82.341568 0 0 0
62.636436 24.217003 82.469803 0 0 0
62.042183 24.207111 82.630814 0 0 0
61.426716 24.273289 82.641563 0 0 0
60.976715 24.369049 82.641563 0 0 0
60.505779 24.539026 82.791565 0 0 0
60.534737 24.549358 82.124908 0 0 0
62.300179 24.209518 82.119011 0 0 0
58.220547 26.46719 82.416565 0 0 0
58.840923 25.666294 82.341568 0 0 0
58.554268 25.973902 82.491562 0 0 0
57.661797 27.686356 82.491562 0 0 0
57.903843 27.052437 82.636978 0 0 0
59.626717 25.013296 82.341568 0 0 0
60.01384 24.767624 82.791565 0 0 0
60.0159 24.769753 82.341568 0 0 0
59.135223 25.365932 82.491562 0 0 0
65.505333 29.302439 86.116409 0 0 0
65.776718 29.645905 85.801361 0 0 0
65.941269 29.168102 85.665298 0 0 0
65.507889 28.852438 86.119064 0 0 0
65.945038 28.702438 85.676132 0 0 0
65.456985 28.218357 86.097 0 0 0
65.770164 28.280991 85.809601 0 0 0
65.673012 27.802437 85.775955 0 0 0
65.605225 27.32675 85.6231 0 0 0
64.140182 31.846466 85.896698 0 0 0
64.547638 31.476671 85.942841 0 0 0
62.926716 32.506039 85.701118 0 0 0
63.231518 32.027355 86.111893 0 0 0
63.676716 31.820166 86.131882 0 0 0
64.768173 31.042038 86.091568 0 0 0
64.876717 30.24811 86.391563 0 0 0
62.551712 32.10585 86.141449 0 0 0
61.876717 32.646332 85.597092 0 0 0
61.876717 32.079868 86.158653 0 0 0
61.576717 32.36924 85.855652 0 0 0
61.19268 31.932549 86.13562 0 0 0
61.160206 32.459522 85.648666 0 0 0
60.599731 31.877934 85.957169 0 0 0
60.235527 31.382608 86.146393 0 0 0
59.939354 31.888332 85.581947 0 0 0
60.057014 30.825306 86.391563 0 0 0
59.725719 30.933765 86.105217 0 0 0
59.756157 31.44384 85.806664 0 0 0
59.457054 30.562027 86.10585 0 0 0
59.006824 30.635958 85.664932 0 0 0
59.185299 30.091267 86.084732 0 0 0
58.680466 29.677437 85.693901 0 0 0
59.112541 29.602438 86.14772 0 0 0
59.056305 29.152439 86.141052 0 0 0
58.907646 28.477436 85.984901 0 0 0
59.011414 27.977077 85.955948 0 0 0
64.857193 27.002117 86.102013 0 0 0
64.276909 26.467714 86.102524 0 0 0
64.739281 26.296938 85.664818 0 0 0
63.676716 26.177082 86.149658 0 0 0
64.170593 25.858387 85.635422 0 0 0
62.964218 25.775991 85.996185 0 0 0
63.553944 25.568462 85.628479 0 0 0
62.326714 25.746231 86.05072 0 0 0
61.726715 25.756344 86.042313 0 0 0
60.526718 26.314316 86.153931 0 0 0
60.818859 25.883945 85.915581 0 0 0
61.276714 25.641747 85.851234 0 0 0
59.365967 27.43399 86.081741 0 0 0
59.830582 26.740927 86.049561 0 0 0
59.320168 26.880013 85.723923 0 0 0
60.20417 26.120842 85.81842 0 0 0
65.626266 31.545944 80.391563 0 0 0
66.117889 30.841194 80.362457 0 0 0
65.761612 31.081856 80.120728 0 0 0
65.477722 31.238777 79.950592 0 0 0
65.818886 30.652439 79.906525 0 0 0
66.073074 30.277439 79.977737 0 0 0
66.544037 29.452438 80.391563 0 0 0
66.346207 29.752438 80.133652 0 0 0
66.053329 29.902437 79.814041 0 0 0
66.380951 29.137276 80.093094 0 0 0
66.494781 28.252438 80.391563 0 0 0
66.376717 28.541061 80.114899 0 0 0
66.140442 27.877438 79.993355 0 0 0
66.094223 28.275532 79.797783 0 0 0
66.04496 27.212076 80.226044 0 0 0
65.764313 27.334881 79.79528 0 0 0
65.635658 26.88512 79.941559 0 0 0
65.776718 26.585865 80.373871 0 0 0
65.647003 32.175781 83.832115 0 0 0
66.352737 31.290079 83.691566 0 0 0
66.658524 30.603203 83.74559 0 0 0
66.907402 29.919315 83.528015 0 0 0
66.910851 29.403828 83.843079 0 0 0
67.010048 28.678661 83.549088 0 0 0
66.843811 28.252438 83.991562 0 0 0
66.961441 28.252438 83.526222 0 0 0
66.76075 27.802437 83.991562 0 0 0
66.829575 27.652437 83.541565 0 0 0
66.608711 27.048666 83.523193 0 0 0
66.381699 26.593693 83.507675 0 0 0
65.966362 26.09973 83.756142 0 0 0
65.562645 25.61937 83.691566 0 0 0
64.8479 30.26844 78.59156 0 0 0
64.711929 29.902437 78.59156 0 0 0
64.576714 29.859657 78.291565 0 0 0
64.612289 29.602438 78.546127 0 0 0
64.453423 29.602438 78.291565 0 0 0
64.293427 29.180054 78.27597 0 0 0
64.109802 28.552437 78.30751 0 0 0
64.126717 28.102438 78.365799 0 0 0
63.976715 28.702438 78.164467 0 0 0
63.678455 28.600782 77.988396 0 0 0
63.734062 27.952438 78.209732 0 0 0
63.366547 28.274918 77.955093 0 0 0
60.805901 28.315699 78.055359 0 0 0
61.115902 27.947895 78.058884 0 0 0
60.100498 28.741299 78.291565 0 0 0
60.526718 28.696901 78.072777 0 0 0
59.929733 28.225798 78.506577 0 0 0
63.500328 27.665354 78.212021 0 0 0
62.966187 27.775745 78.036613 0 0 0
63.697395 27.044178 78.506241 0 0 0
62.326714 27.590275 78.037064 0 0 0
61.876717 27.627001 78.016678 0 0 0
62.551712 27.009586 78.292206 0 0 0
61.726715 27.077812 78.258835 0 0 0
65.765129 32.28957 82.030197 0 0 0
61.326157 27.345837 78.201424 0 0 0
60.83252 27.381248 78.323708 0 0 0
66.331467 31.579922 82.041565 0 0 0
60.363106 27.656559 78.41922 0 0 0
66.042725 31.96137 81.891563 0 0 0
66.647629 30.944328 81.904144 0 0 0
66.804031 30.652439 82.191566 0 0 0
66.82943 30.352438 81.741562 0 0 0
66.448547 31.244991 81.609177 0 0 0
67.009132 29.596354 81.953072 0 0 0
67.067879 29.002438 82.041565 0 0 0
67.038925 28.552437 82.012283 0 0 0
66.990082 27.977184 82.191566 0 0 0
66.905289 27.961115 81.745499 0 0 0
66.809036 27.352438 82.191566 0 0 0
66.794449 27.502438 81.741562 0 0 0
66.653374 26.955042 82.191566 0 0 0
66.611786 27.056335 81.720825 0 0 0
66.391922 26.576607 81.759254 0 0 0
66.125389 26.143261 81.891144 0 0 0
65.782623 25.691565 82.059875 0 0 0
65.465622 25.40877 82.019348 0 0 0
64.895874 32.326969 80.391563 0 0 0
65.071098 32.002438 80.09156 0 0 0
58.261604 30.502438 80.360458 0 0 0
58.216419 30.052437 80.252113 0 0 0
58.340477 29.677437 79.918289 0 0 0
58.2803 28.927439 79.970795 0 0 0
58.187485 28.187595 80.23436 0 0 0
64.76062 25.829525 80.066879 0 0 0
64.110832 25.504564 79.935272 0 0 0
63.534077 25.030327 80.257721 0 0 0
62.626717 25.1126 79.814865 0 0 0
62.026718 25.111757 79.815643 0 0 0
62.101715 24.846817 80.212891 0 0 0
61.649483 24.875174 80.231049 0 0 0
61.426716 25.095665 79.928871 0 0 0
60.69381 25.131241 80.226349 0 0 0
60.817619 25.544022 79.632126 0 0 0
58.558868 27.952438 79.771172 0 0 0
58.572861 27.433222 79.974823 0 0 0
58.763779 26.761917 80.228516 0 0 0
58.403805 27.202438 80.391563 0 0 0
60.209473 25.632908 79.909782 0 0 0
59.777134 26.002438 79.791931 0 0 0
59.251717 26.376945 79.957146 0 0 0
60.054092 25.387428 80.347694 0 0 0
64.397446 33.23296 81.891563 0 0 0
64.897102 32.917027 81.758606 0 0 0
63.676716 33.613289 82.191566 0 0 0
63.927895 33.474258 81.891563 0 0 0
63.310074 33.773232 82.191566 0 0 0
64.433533 33.144199 83.713333 0 0 0
63.826714 33.361282 83.841568 0 0 0
61.305733 33.534012 83.833397 0 0 0
58.864082 32.48053 82.041565 0 0 0
58.537724 32.059105 81.891563 0 0 0
58.194252 31.557934 82.060326 0 0 0
58.245426 31.524216 81.59156 0 0 0
57.907295 30.96125 82.048874 0 0 0
57.75375 30.352438 81.735962 0 0 0
57.538101 29.752438 82.041565 0 0 0
57.487537 29.302439 82.041565 0 0 0
57.571304 29.302439 81.59156 0 0 0
57.519615 28.627438 82.041565 0 0 0
57.561096 28.852438 81.59156 0 0 0
57.597721 28.402437 81.59156 0 0 0
63.841908 24.545601 81.750214 0 0 0
63.301716 24.382141 81.741562 0 0 0
62.926716 24.286787 81.891563 0 0 0
61.501717 24.270861 82.191566 0 0 0
61.501717 24.335583 81.741562 0 0 0
60.976715 24.392403 82.041565 0 0 0
57.983589 27.055779 81.816559 0 0 0
58.308174 26.448296 81.891563 0 0 0
58.573795 26.061508 81.897835 0 0 0
59.031162 25.627888 81.679398 0 0 0
59.164268 25.398056 82.065399 0 0 0
57.723503 27.600569 82.041565 0 0 0
60.231937 24.75098 81.653748 0 0 0
59.626698 25.104523 81.741562 0 0 0
58.92823 32.249851 83.991562 0 0 0
58.857445 32.322395 83.541565 0 0 0
58.586319 32.002438 83.651505 0 0 0
58.248383 31.518948 83.691566 0 0 0
57.999565 30.9359 83.834236 0 0 0
58.040676 31.259212 83.423752 0 0 0
57.758793 30.301727 83.717728 0 0 0
57.671913 29.902437 83.797699 0 0 0
57.591022 29.602438 83.691566 0 0 0
57.591019 29.152439 83.691566 0 0 0
57.517673 29.302439 83.391563 0 0 0
57.659431 28.552437 83.81324 0 0 0
57.598625 28.252438 83.391563 0 0 0
64.415932 24.861942 83.782181 0 0 0
63.826714 24.678936 83.991562 0 0 0
63.812866 24.561529 83.555641 0 0 0
63.376717 24.494617 83.802658 0 0 0
62.814217 24.363306 83.616562 0 0 0
61.914215 24.341431 83.616562 0 0 0
61.276714 24.429598 83.691566 0 0 0
60.826714 24.596344 83.83847 0 0 0
57.964493 27.286751 83.86911 0 0 0
58.212791 26.767654 83.852722 0 0 0
58.304947 26.4161 83.391563 0 0 0
58.534229 26.183243 83.691566 0 0 0
57.790146 27.652437 83.691566 0 0 0
60.243797 24.832815 83.83242 0 0 0
59.653732 25.058529 83.391563 0 0 0
65.337601 31.403847 85.341568 0 0 0
66.105316 30.081236 85.260742 0 0 0
65.83754 30.355808 85.493507 0 0 0
65.724091 30.052437 85.736542 0 0 0
66.058029 29.602438 85.491562 0 0 0
66.055389 27.736553 85.292999 0 0 0
64.576714 32.911194 81.261307 0 0 0
64.301895 33.202438 81.59156 0 0 0
64.576714 33.033829 81.59156 0 0 0
64.861084 32.60244 81.012466 0 0 0
64.876717 32.738476 81.291565 0 0 0
60.236893 25.975279 79.471397 0 0 0
59.773384 26.302437 79.491562 0 0 0
58.922768 27.022549 79.782379 0 0 0
59.476715 26.622107 79.491562 0 0 0
61.276714 25.344608 79.670029 0 0 0
61.632454 25.402437 79.503044 0 0 0
62.835541 25.391857 79.491562 0 0 0
63.226715 25.34355 79.667053 0 0 0
63.676716 25.393379 79.791565 0 0 0
61.426147 25.719467 79.210281 0 0 0
62.962532 25.696342 79.208389 0 0 0
65.613235 25.563408 83.251907 0 0 0
66.103676 26.088211 83.186295 0 0 0
66.397064 26.489746 83.09156 0 0 0
66.704262 27.081825 83.09156 0 0 0
66.916611 27.676235 82.941559 0 0 0
67.041855 28.252438 83.09156 0 0 0
67.088768 28.927439 82.941559 0 0 0
67.03804 29.152439 83.391563 0 0 0
67.003288 29.875553 82.979065 0 0 0
66.825264 30.427437 83.241562 0 0 0
66.356873 31.538265 82.976181 0 0 0
66.627174 30.98634 83.125725 0 0 0
66.06295 31.98838 82.941559 0 0 0
66.045624 31.889931 83.391563 0 0 0
65.757225 32.280025 83.231598 0 0 0
65.476715 32.606102 82.913147 0 0 0
63.847786 25.858376 79.380966 0 0 0
64.91214 26.232216 79.759933 0 0 0
58.598183 28.552437 79.561554 0 0 0
58.498558 29.152439 79.657036 0 0 0
58.610981 29.602438 79.533073 0 0 0
58.911427 29.302439 79.191566 0 0 0
65.121025 30.802439 79.191566 0 0 0
65.135338 31.102438 79.191566 0 0 0
65.141266 31.702438 79.791565 0 0 0
61.583984 27.956738 77.950218 0 0 0
61.276714 28.402437 77.850044 0 0 0
61.80172 28.482498 77.732979 0 0 0
62.026714 28.702438 77.579742 0 0 0
62.026718 28.102438 77.86895 0 0 0
62.626717 28.367582 77.751495 0 0 0
62.776714 28.702438 77.570564 0 0 0
63.076717 28.503214 77.744934 0 0 0
63.076717 28.702438 77.626434 0 0 0
63.342743 28.75029 77.709915 0 0 0
63.677284 29.002438 77.69136 0 0 0
63.976715 28.996527 77.991562 0 0 0
63.976715 29.173044 77.691566 0 0 0
64.122383 29.302439 77.691566 0 0 0
64.230225 29.380371 77.991562 0 0 0
64.358139 29.602438 77.991562 0 0 0
65.639641 25.85026 81.179405 0 0 0
65.835907 25.8794 81.59156 0 0 0
66.076714 26.299496 81.286331 0 0 0
66.325607 26.740891 81.259506 0 0 0
66.764885 27.802437 81.291565 0 0 0
66.816025 28.327438 81.141563 0 0 0
66.938599 28.682455 81.441559 0 0 0
66.94397 29.152136 81.441559 0 0 0
66.805916 29.452438 80.991562 0 0 0
66.880707 29.827438 81.441559 0 0 0
66.685211 30.31366 81.134094 0 0 0
66.378403 31.107029 81.18911 0 0 0
65.764648 31.945625 81.12677 0 0 0
66.097672 31.722988 81.456451 0 0 0
65.704361 32.229614 81.59156 0 0 0
65.494034 32.302437 81.255707 0 0 0
61.426716 27.802437 87.126709 0 0 0
62.101715 27.952438 87.20813 0 0 0
62.926716 28.027437 87.177307 0 0 0
60.976715 28.102438 87.097137 0 0 0
60.976715 28.777437 87.161736 0 0 0
61.426716 28.252438 87.205887 0 0 0
61.435417 28.852438 87.260818 0 0 0
62.476715 28.54097 87.300713 0 0 0
61.951717 28.601139 87.307228 0 0 0
62.251717 29.359051 87.301964 0 0 0
62.969269 29.28936 87.256073 0 0 0
60.976715 29.452438 87.138855 0 0 0
61.559879 29.423494 87.250175 0 0 0
61.126717 30.052437 87.06868 0 0 0
61.614216 29.977436 87.163177 0 0 0
62.626717 29.564857 87.26651 0 0 0
62.176716 30.052437 87.194427 0 0 0
62.626717 30.052437 87.177773 0 0 0
63.339218 28.777439 87.198463 0 0 0
63.676716 29.152439 87.126152 0 0 0
63.526718 29.602438 87.130302 0 0 0
63.976715 29.608044 86.992477 0 0 0
63.226715 29.977436 87.127441 0 0 0
65.671928 27.802437 79.50354 0 0 0
65.637283 28.739384 79.34462 0 0 0
65.78286 28.204948 79.500534 0 0 0
66.108948 28.852438 79.754929 0 0 0
65.486191 29.365685 79.191566 0 0 0
65.804634 29.302439 79.465195 0 0 0
65.593307 29.764395 79.367058 0 0 0
66.092361 29.473419 79.777267 0 0 0
65.656723 30.202438 79.538498 0 0 0
65.476715 30.465399 79.50869 0 0 0
65.428169 30.802439 79.608688 0 0 0
65.257507 31.402437 79.791565 0 0 0
58.988789 26.739109 85.274162 0 0 0
59.926201 25.868828 85.358398 0 0 0
60.512669 25.617683 85.491562 0 0 0
59.66246 26.327196 85.606796 0 0 0
58.57003 27.984667 85.499832 0 0 0
58.941566 27.502438 85.721268 0 0 0
61.126717 25.385677 85.516754 0 0 0
61.801716 25.143663 85.379272 0 0 0
61.726715 25.448795 85.740898 0 0 0
62.326714 25.063841 85.312454 0 0 0
62.176716 25.434643 85.758408 0 0 0
62.776714 25.054905 85.261887 0 0 0
62.776718 25.356909 85.615349 0 0 0
63.204269 25.096798 85.209427 0 0 0
58.561684 28.552437 85.619873 0 0 0
58.248375 28.852438 85.234512 0 0 0
58.569897 29.152439 85.644943 0 0 0
58.250366 29.302439 85.230873 0 0 0
58.587479 30.074745 85.471123 0 0 0
58.876717 30.165003 85.775742 0 0 0
59.124962 31.26519 85.388184 0 0 0
59.483978 31.467773 85.570023 0 0 0
62.476715 32.647514 85.609756 0 0 0
63.347214 32.60244 85.481377 0 0 0
63.54184 32.284878 85.767807 0 0 0
63.918186 32.464458 85.376198 0 0 0
64.895966 31.720285 85.491562 0 0 0
62.026718 32.945419 85.250618 0 0 0
62.696022 32.929436 85.227409 0 0 0
0 0 0 1 0 0 0 1 0 0 0 1 0 0 0 0 0 789 1 0 0
