ply
format ascii 1.0
comment PCL generated
element vertex 144
property float x
property float y
property float z
property uchar red
property uchar green
property uchar blue
element camera 1
property float view_px
property float view_py
property float view_pz
property float x_axisx
property float x_axisy
property float x_axisz
property float y_axisx
property float y_axisy
property float y_axisz
property float z_axisx
property float z_axisy
property float z_axisz
property float focal
property float scalex
property float scaley
property float centerx
property float centery
property int viewportx
property int viewporty
property float k1
property float k2
end_header
-0.043177351 0.027800605 -0.008020821 255 255 255
-0.043191697 0.028352663 -0.00802211 255 255 255
-0.042941947 0.028329954 -0.0080537526 255 255 255
-0.043540984 0.025936306 -0.0070786201 255 255 255
-0.042814329 0.025928453 -0.0070069456 255 255 255
-0.044451114 0.026628813 -0.0072408081 255 255 255
-0.043548346 0.026473248 -0.0074906209 255 255 255
-0.042508945 0.026499938 -0.0073570455 255 255 255
-0.041826893 0.026693409 -0.0072011179 255 255 255
-0.045179125 0.02752406 -0.0071386551 255 255 255
-0.044591561 0.027435128 -0.0075067184 255 255 255
-0.043558955 0.027332604 -0.0078564165 255 255 255
-0.042595096 0.02738804 -0.0078525152 255 255 255
-0.041760705 0.027347289 -0.0074559324 255 255 255
-0.045211513 0.028464746 -0.0072270622 255 255 255
-0.044492979 0.028412411 -0.0076761995 255 255 255
-0.043610897 0.028487975 -0.0079463338 255 255 255
-0.042556863 0.028366184 -0.0079578487 255 255 255
-0.041805346 0.028535202 -0.0077658771 255 255 255
-0.045159601 0.029203996 -0.0070877098 255 255 255
-0.044435963 0.02950879 -0.0073558758 255 255 255
-0.043507263 0.029487187 -0.0076713837 255 255 255
-0.042816523 0.029549336 -0.0076924786 255 255 255
-0.041640267 0.029618144 -0.0071952813 255 255 255
-0.04415812 0.030076683 -0.0071678334 255 255 255
-0.043619625 0.030278355 -0.0070900344 255 255 255
-0.042343333 0.030116946 -0.0070761018 255 255 255
-0.041735142 0.030046418 -0.0070061409 255 255 255
-0.044454154 0.025712753 -0.0064282101 255 255 255
-0.043490894 0.025566988 -0.0065016658 255 255 255
-0.0425382 0.025719844 -0.0064879954 255 255 255
-0.045333195 0.026521048 -0.0063787717 255 255 255
-0.044672463 0.026246607 -0.0068603531 255 255 255
-0.042130735 0.026103124 -0.0068041109 255 255 255
-0.041855101 0.02641511 -0.0068806135 255 255 255
-0.046053927 0.027686939 -0.0060997182 255 255 255
-0.045623906 0.027425122 -0.0065575121 255 255 255
-0.046079718 0.028382584 -0.0061647692 255 255 255
-0.045714054 0.028575853 -0.0066418271 255 255 255
-0.040451456 0.028771892 -0.0062868022 255 255 255
-0.045520853 0.029428437 -0.0064888122 255 255 255
-0.044836842 0.029848769 -0.0068190568 255 255 255
-0.04115447 0.029777646 -0.0067522549 255 255 255
-0.040759604 0.029571235 -0.0063407361 255 255 255
-0.045209438 0.030119345 -0.0062249028 255 255 255
-0.044474885 0.030475596 -0.0064896545 255 255 255
-0.043495215 0.030725768 -0.0066235294 255 255 255
-0.042451479 0.030680565 -0.0066132201 255 255 255
-0.041493736 0.030418707 -0.0063923849 255 255 255
-0.043502018 0.031064466 -0.0061305412 255 255 255
-0.042781383 0.031071687 -0.0061379396 255 255 255
-0.04517781 0.025794122 -0.0055074515 255 255 255
-0.044460636 0.025452971 -0.0055541676 255 255 255
-0.043461066 0.025272133 -0.0056097736 255 255 255
-0.042730011 0.02532991 -0.0055916184 255 255 255
-0.046043847 0.026872858 -0.0052365386 255 255 255
-0.045698468 0.026438829 -0.0055131414 255 255 255
-0.04617925 0.027482122 -0.0055002649 255 255 255
-0.046249092 0.028492322 -0.0054932623 255 255 255
-0.040158849 0.028651305 -0.0055616749 255 255 255
-0.046084262 0.029270008 -0.0053388262 255 255 255
-0.045811716 0.029732585 -0.0055223336 255 255 255
-0.040413968 0.029590067 -0.0055370848 255 255 255
-0.045346268 0.03034837 -0.0054983865 255 255 255
-0.044704828 0.030845234 -0.0055784243 255 255 255
-0.041380424 0.030760132 -0.0055123759 255 255 255
-0.04081586 0.030264582 -0.0054841433 255 255 255
-0.044216581 0.031117022 -0.0053973934 255 255 255
-0.043491866 0.031258758 -0.0055207764 255 255 255
-0.04247139 0.031213824 -0.0055135977 255 255 255
-0.04178239 0.031071449 -0.0051896102 255 255 255
-0.045277879 0.025836894 -0.0045170258 255 255 255
-0.044579543 0.025502497 -0.004535805 255 255 255
-0.043664847 0.0252536 -0.0045427745 255 255 255
-0.042788412 0.025255635 -0.0046373629 255 255 255
-0.046030421 0.026805267 -0.0048590922 255 255 255
-0.045705024 0.026391186 -0.0044860067 255 255 255
-0.046220515 0.02748251 -0.0045347633 255 255 255
-0.045973234 0.027002826 -0.0040533268 255 255 255
-0.046310477 0.028438056 -0.0045215781 255 255 255
-0.040085964 0.028857693 -0.0046223872 255 255 255
-0.039927609 0.02896063 -0.0040104114 255 255 255
-0.046118818 0.02929749 -0.0044858628 255 255 255
-0.045865487 0.029832557 -0.004483988 255 255 255
-0.040325556 0.029537614 -0.004544999 255 255 255
-0.045372572 0.030473793 -0.0045445743 255 255 255
-0.044814978 0.030906742 -0.0044096899 255 255 255
-0.041246049 0.030795371 -0.0044366298 255 255 255
-0.040761754 0.030286271 -0.0045593227 255 255 255
-0.044291381 0.031158987 -0.0044386163 255 255 255
-0.043496273 0.031316094 -0.0044319937 255 255 255
-0.042448532 0.031260829 -0.0044633392 255 255 255
-0.041742694 0.031092275 -0.004559333 255 255 255
-0.044454996 0.025719734 -0.0036008842 255 255 255
-0.043280005 0.025472904 -0.003604345 255 255 255
-0.042880587 0.02537109 -0.0039161765 255 255 255
-0.045435399 0.026471784 -0.0035638362 255 255 255
-0.046121377 0.027660692 -0.0038906161 255 255 255
-0.045835428 0.027417956 -0.003407401 255 255 255
-0.046131641 0.028481837 -0.0037341558 255 255 255
-0.045874551 0.028664701 -0.0031871297 255 255 255
-0.040293604 0.028787926 -0.0034275136 255 255 255
-0.0460224 0.029089972 -0.0036541545 255 255 255
-0.04568791 0.029681098 -0.0034922874 255 255 255
-0.040633075 0.029549547 -0.0035025878 255 255 255
-0.04528689 0.030301034 -0.0036471672 255 255 255
-0.04458347 0.030680938 -0.0033883252 255 255 255
-0.043539107 0.030880228 -0.0031696989 255 255 255
-0.042442713 0.030897081 -0.0032516876 255 255 255
-0.04146146 0.030605311 -0.0035155753 255 255 255
-0.040856201 0.030151173 -0.0037319388 255 255 255
-0.044078484 0.031094685 -0.0038198256 255 255 255
-0.043483764 0.031135689 -0.0036546283 255 255 255
-0.042580467 0.031098653 -0.0036688528 255 255 255
-0.041875936 0.031033546 -0.0037987106 255 255 255
-0.045187123 0.026652977 -0.0029356801 255 255 255
-0.044660322 0.026451919 -0.002765181 255 255 255
-0.045303464 0.02757604 -0.0025874525 255 255 255
-0.04484839 0.027578607 -0.0021283724 255 255 255
-0.041750021 0.027862802 -0.0021013641 255 255 255
-0.045355026 0.028443452 -0.0025329718 255 255 255
-0.04481202 0.028612301 -0.0020915689 255 255 255
-0.041389879 0.028502449 -0.0022459647 255 255 255
-0.04046125 0.028617544 -0.0026149754 255 255 255
-0.045256849 0.029465979 -0.0027269118 255 255 255
-0.044600304 0.02959411 -0.0023141501 255 255 255
-0.043564353 0.029818622 -0.0021212932 255 255 255
-0.042453635 0.029730231 -0.0020823388 255 255 255
-0.041487545 0.02950931 -0.0024626846 255 255 255
-0.040859681 0.029238755 -0.0028994207 255 255 255
-0.044351324 0.030315762 -0.0026931919 255 255 255
-0.043495484 0.030384898 -0.0025865056 255 255 255
-0.042463932 0.03040269 -0.0025862383 255 255 255
-0.041671954 0.030268978 -0.0028014018 255 255 255
-0.044465013 0.0278074 -0.0018278832 255 255 255
-0.04357101 0.027803507 -0.0016104246 255 255 255
-0.042701114 0.027656415 -0.0016962433 255 255 255
-0.04432765 0.028435325 -0.0017756942 255 255 255
-0.043476459 0.028551603 -0.0015556936 255 255 255
-0.042474754 0.028527521 -0.0016912866 255 255 255
-0.041825514 0.028382102 -0.0018876219 255 255 255
-0.044204842 0.029317275 -0.0019345457 255 255 255
-0.043538958 0.029392997 -0.0017718121 255 255 255
-0.042695656 0.029389653 -0.0018192157 255 255 255
0 0 0 1 0 0 0 1 0 0 0 1 0 0 0 0 0 144 1 0 0
