ply
format ascii 1.0
comment PCL generated
element vertex 129
property float x
property float y
property float z
property uchar red
property uchar green
property uchar blue
element camera 1
property float view_px
property float view_py
property float view_pz
property float x_axisx
property float x_axisy
property float x_axisz
property float y_axisx
property float y_axisy
property float y_axisz
property float z_axisx
property float z_axisy
property float z_axisz
property float focal
property float scalex
property float scaley
property float centerx
property float centery
property int viewportx
property int viewporty
property float k1
property float k2
end_header
0.040589537 -0.031129703 0.015881477 255 255 255
0.041300878 -0.031087473 0.015873997 255 255 255
0.039893564 -0.030728087 0.015891729 255 255 255
0.040510654 -0.030515607 0.015608937 255 255 255
0.041511696 -0.030517777 0.015586797 255 255 255
0.042324398 -0.030401144 0.015810287 255 255 255
0.040766601 -0.029755667 0.015334703 255 255 255
0.041486692 -0.029672796 0.015363014 255 255 255
0.042472173 -0.029528376 0.015724342 255 255 255
0.043075923 -0.029302552 0.015984563 255 255 255
0.041685514 -0.02860429 0.015567973 255 255 255
0.042411752 -0.028467923 0.015811902 255 255 255
0.041777249 -0.027827805 0.015812086 255 255 255
0.042163782 -0.027846187 0.015872432 255 255 255
0.040551018 -0.032010838 0.01698452 255 255 255
0.039628413 -0.03137688 0.016614975 255 255 255
0.040508866 -0.031618532 0.016420519 255 255 255
0.041512635 -0.031564128 0.016428864 255 255 255
0.042429514 -0.031306703 0.016601985 255 255 255
0.039677083 -0.030936703 0.01613198 255 255 255
0.042763077 -0.030648801 0.016248347 255 255 255
0.043301161 -0.030441403 0.016695205 255 255 255
0.043386497 -0.029621124 0.0164268 255 255 255
0.042832691 -0.028383948 0.01608534 255 255 255
0.043324441 -0.028507506 0.016561477 255 255 255
0.041546665 -0.027169339 0.016245848 255 255 255
0.042543922 -0.027478958 0.016376913 255 255 255
0.043194029 -0.027731216 0.016756857 255 255 255
0.040663917 -0.026680226 0.016708003 255 255 255
0.041441415 -0.026746428 0.016664725 255 255 255
0.042297632 -0.026846314 0.016861621 255 255 255
0.039825026 -0.032123804 0.017835615 255 255 255
0.04048695 -0.03216742 0.017521605 255 255 255
0.041443467 -0.032164212 0.017554289 255 255 255
0.042205844 -0.032053765 0.017854191 255 255 255
0.039513819 -0.031748705 0.017404474 255 255 255
0.040199134 -0.031999305 0.017112045 255 255 255
0.041749042 -0.031956609 0.017101733 255 255 255
0.042545713 -0.03170418 0.017367365 255 255 255
0.043259475 -0.031209471 0.017573589 255 255 255
0.043723408 -0.030516803 0.017531585 255 255 255
0.044025067 -0.030214533 0.017925052 255 255 255
0.043854434 -0.029470265 0.017155005 255 255 255
0.044092793 -0.029489893 0.017715694 255 255 255
0.043802913 -0.028384561 0.017361073 255 255 255
0.04406039 -0.028646395 0.017764686 255 255 255
0.042848114 -0.027107403 0.017002789 255 255 255
0.043437254 -0.027490156 0.017501542 255 255 255
0.040707007 -0.026213357 0.017630467 255 255 255
0.041543525 -0.0263106 0.01747063 255 255 255
0.042526878 -0.026602283 0.017489839 255 255 255
0.043127179 -0.026874021 0.017810173 255 255 255
0.03975549 -0.032132749 0.01856548 255 255 255
0.040576961 -0.032292243 0.018409509 255 255 255
0.041566804 -0.032318257 0.018405935 255 255 255
0.042340804 -0.032128189 0.018539781 255 255 255
0.038886216 -0.031488672 0.018726243 255 255 255
0.039252024 -0.031733803 0.01826047 255 255 255
0.042773705 -0.031924274 0.018542634 255 255 255
0.043322619 -0.031425301 0.018493678 255 255 255
0.043832019 -0.030730626 0.018432632 255 255 255
0.044067536 -0.030236429 0.018568045 255 255 255
0.044210974 -0.029488714 0.018493783 255 255 255
0.043948546 -0.028059065 0.018351985 255 255 255
0.044135865 -0.02855926 0.01855183 255 255 255
0.04370093 -0.027503144 0.018499667 255 255 255
0.040643055 -0.026101574 0.018538455 255 255 255
0.041457538 -0.026145514 0.018526908 255 255 255
0.042525575 -0.026410926 0.018524349 255 255 255
0.043162011 -0.026788782 0.01851449 255 255 255
0.039634801 -0.032001927 0.019166527 255 255 255
0.040511064 -0.032184239 0.019256143 255 255 255
0.041428421 -0.032259062 0.0194297 255 255 255
0.042227328 -0.032113574 0.019431246 255 255 255
0.039350871 -0.03168036 0.019297965 255 255 255
0.040581319 -0.031995699 0.019816784 255 255 255
0.042729601 -0.031790067 0.019579414 255 255 255
0.043331847 -0.031288531 0.019494422 255 255 255
0.043791506 -0.030571951 0.019556135 255 255 255
0.044057004 -0.030075178 0.019264637 255 255 255
0.043957893 -0.029608522 0.019882875 255 255 255
0.044126991 -0.029445259 0.019369226 255 255 255
0.043883536 -0.028381247 0.019708168 255 255 255
0.044080384 -0.028617255 0.019331139 255 255 255
0.043466415 -0.027444849 0.019517578 255 255 255
0.039897732 -0.026496485 0.019856675 255 255 255
0.04058671 -0.026259461 0.019507257 255 255 255
0.041560076 -0.026278805 0.019487195 255 255 255
0.042510085 -0.026564676 0.019517336 255 255 255
0.04310945 -0.026902989 0.019303305 255 255 255
0.039567307 -0.025677726 0.019882021 255 255 255
0.041608982 -0.032016769 0.020125715 255 255 255
0.040992614 -0.031707719 0.020627616 255 255 255
0.041642755 -0.031592723 0.02064074 255 255 255
0.042503893 -0.03143644 0.020407556 255 255 255
0.043131627 -0.03122814 0.020075468 255 255 255
0.042805992 -0.030697068 0.020873461 255 255 255
0.043374896 -0.030467346 0.020433329 255 255 255
0.043609511 -0.029444525 0.02049657 255 255 255
0.042904176 -0.028125212 0.020953355 255 255 255
0.043453485 -0.028493866 0.020519169 255 255 255
0.039504655 -0.027431231 0.020718377 255 255 255
0.040447172 -0.027148023 0.02090135 255 255 255
0.041576512 -0.027099833 0.020922022 255 255 255
0.042614594 -0.027381781 0.020604918 255 255 255
0.043236807 -0.027675971 0.020268569 255 255 255
0.03951364 -0.026576886 0.020435844 255 255 255
0.040484045 -0.026721345 0.020420726 255 255 255
0.04146136 -0.026669115 0.020405192 255 255 255
0.042313982 -0.026810313 0.02019505 255 255 255
0.039359815 -0.025509004 0.020482495 255 255 255
0.04078383 -0.031328633 0.02100247 255 255 255
0.041351948 -0.03108649 0.021137057 255 255 255
0.041558452 -0.030522365 0.02143508 255 255 255
0.042494044 -0.03039768 0.021196002 255 255 255
0.040789999 -0.029289082 0.021857707 255 255 255
0.041430816 -0.029471891 0.021776702 255 255 255
0.042581875 -0.029462129 0.021383209 255 255 255
0.043108284 -0.029495314 0.021071984 255 255 255
0.039721556 -0.02826249 0.021352364 255 255 255
0.040539205 -0.028393809 0.021781063 255 255 255
0.041378085 -0.02847809 0.021790603 255 255 255
0.04251283 -0.028509255 0.021319129 255 255 255
0.04306988 -0.028818294 0.021060197 255 255 255
0.039770875 -0.027723139 0.021102635 255 255 255
0.040515561 -0.02762269 0.021332579 255 255 255
0.041462958 -0.027532488 0.02129392 255 255 255
0.042336214 -0.027780585 0.021120688 255 255 255
0.040943209 -0.029095694 0.02200198 255 255 255
0 0 0 1 0 0 0 1 0 0 0 1 0 0 0 0 0 129 1 0 0
