ply
format ascii 1.0
comment PCL generated
element vertex 120
property float x
property float y
property float z
property uchar red
property uchar green
property uchar blue
element camera 1
property float view_px
property float view_py
property float view_pz
property float x_axisx
property float x_axisy
property float x_axisz
property float y_axisx
property float y_axisy
property float y_axisz
property float z_axisx
property float z_axisy
property float z_axisz
property float focal
property float scalex
property float scaley
property float centerx
property float centery
property int viewportx
property int viewporty
property float k1
property float k2
end_header
-0.034384552 -0.031578008 0.072942823 255 255 255
-0.034313343 -0.030486397 0.072793894 255 255 255
-0.034345265 -0.029625649 0.072845638 255 255 255
-0.035616476 -0.028192297 0.072975606 255 255 255
-0.035250008 -0.033215955 0.073959708 255 255 255
-0.034561619 -0.032508586 0.073621072 255 255 255
-0.033980347 -0.032084629 0.07397601 255 255 255
-0.034120332 -0.031632677 0.073313847 255 255 255
-0.033784501 -0.031313796 0.073602289 255 255 255
-0.034075998 -0.030544981 0.073036104 255 255 255
-0.033706073 -0.030528521 0.073589429 255 255 255
-0.03946761 -0.029518381 0.07398209 255 255 255
-0.034247752 -0.029252209 0.073183067 255 255 255
-0.033852324 -0.029599095 0.073643938 255 255 255
-0.036779545 -0.02800326 0.073023021 255 255 255
-0.035294939 -0.028146937 0.073227175 255 255 255
-0.034499403 -0.028491264 0.07361076 255 255 255
-0.033951879 -0.028940186 0.073995203 255 255 255
-0.037523687 -0.027631368 0.073816106 255 255 255
-0.036363028 -0.02770295 0.073456928 255 255 255
-0.035528522 -0.027795374 0.07359001 255 255 255
-0.034996152 -0.027855083 0.073958993 255 255 255
-0.035472952 -0.033437107 0.074537046 255 255 255
-0.034863725 -0.033107057 0.074405156 255 255 255
-0.034325451 -0.032707676 0.074517764 255 255 255
-0.033900287 -0.032254886 0.074633427 255 255 255
-0.039546885 -0.031417158 0.074666843 255 255 255
-0.033524994 -0.031499766 0.074508131 255 255 255
-0.039709259 -0.030412301 0.074607201 255 255 255
-0.033368189 -0.030484045 0.074483 255 255 255
-0.039586268 -0.029467968 0.074558429 255 255 255
-0.0335376 -0.02958817 0.07455495 255 255 255
-0.039227571 -0.028683662 0.074533746 255 255 255
-0.038749289 -0.028141061 0.074580535 255 255 255
-0.034254309 -0.028318571 0.074433967 255 255 255
-0.033868127 -0.028784107 0.074622013 255 255 255
-0.038285144 -0.027829012 0.0744268 255 255 255
-0.037464216 -0.027413318 0.074577585 255 255 255
-0.036445953 -0.027287172 0.07455086 255 255 255
-0.035441279 -0.027495546 0.074479349 255 255 255
-0.034693062 -0.027834693 0.074586958 255 255 255
-0.035380904 -0.033364404 0.07546597 255 255 255
-0.034779627 -0.0331048 0.075416975 255 255 255
-0.034269944 -0.032671455 0.075587519 255 255 255
-0.033822257 -0.032171573 0.075442567 255 255 255
-0.039581783 -0.031277731 0.075364344 255 255 255
-0.033562306 -0.031498138 0.075544447 255 255 255
-0.039694633 -0.030491048 0.075479336 255 255 255
-0.033376377 -0.030487673 0.07552091 255 255 255
-0.039610267 -0.029490186 0.075501703 255 255 255
-0.033535607 -0.02943868 0.075490102 255 255 255
-0.039239295 -0.028682699 0.075483784 255 255 255
-0.038803782 -0.028204165 0.075506538 255 255 255
-0.034181722 -0.028234059 0.075454392 255 255 255
-0.03384725 -0.028736619 0.075433277 255 255 255
-0.03830082 -0.027802575 0.075531371 255 255 255
-0.037491165 -0.02740456 0.075496607 255 255 255
-0.036481518 -0.027284367 0.075533979 255 255 255
-0.035481304 -0.027485998 0.075498976 255 255 255
-0.034690492 -0.027825402 0.075575352 255 255 255
-0.036206838 -0.033263981 0.076319307 255 255 255
-0.035482924 -0.033160087 0.076256663 255 255 255
-0.036054626 -0.032841489 0.076963902 255 255 255
-0.035409927 -0.032854192 0.076734625 255 255 255
-0.034510974 -0.032456961 0.076437332 255 255 255
-0.039142109 -0.031086519 0.076856226 255 255 255
-0.0388311 -0.031803206 0.076791242 255 255 255
-0.034175124 -0.031588271 0.076831356 255 255 255
-0.033809271 -0.031434476 0.076345727 255 255 255
-0.039411001 -0.030476326 0.076495633 255 255 255
-0.034077018 -0.030869886 0.076984286 255 255 255
-0.033697002 -0.030484188 0.076487482 255 255 255
-0.039309613 -0.029573504 0.076415859 255 255 255
-0.038916435 -0.029219011 0.076780379 255 255 255
-0.03406781 -0.029397789 0.076811075 255 255 255
-0.033777054 -0.029558552 0.076387651 255 255 255
-0.039122034 -0.028925592 0.076180063 255 255 255
-0.038480964 -0.028464243 0.076554313 255 255 255
-0.037735131 -0.028106606 0.076886423 255 255 255
-0.035099693 -0.028212205 0.076904863 255 255 255
-0.034439962 -0.028486196 0.076503322 255 255 255
-0.033917852 -0.028913006 0.076158106 255 255 255
-0.038206991 -0.027914688 0.076171964 255 255 255
-0.037463989 -0.027728137 0.076464608 255 255 255
-0.036527693 -0.027626326 0.076530062 255 255 255
-0.035550632 -0.02774249 0.07647682 255 255 255
-0.034846328 -0.02790609 0.076238826 255 255 255
-0.037265994 -0.032231525 0.077567339 255 255 255
-0.036427088 -0.032350544 0.077458784 255 255 255
-0.035447292 -0.032325573 0.077284656 255 255 255
-0.034751449 -0.032155827 0.077086642 255 255 255
-0.038395494 -0.031403814 0.077483192 255 255 255
-0.037411511 -0.03145989 0.077882253 255 255 255
-0.036598749 -0.031580072 0.077906571 255 255 255
-0.035500918 -0.031564277 0.077727623 255 255 255
-0.034617789 -0.031408653 0.077368014 255 255 255
-0.039078321 -0.030477291 0.077069409 255 255 255
-0.038545609 -0.030443685 0.077542134 255 255 255
-0.037817515 -0.030621946 0.077951014 255 255 255
-0.035211232 -0.030566344 0.077887572 255 255 255
-0.034428336 -0.030468356 0.077412613 255 255 255
-0.038462441 -0.029532194 0.077393845 255 255 255
-0.037599675 -0.02941002 0.077832431 255 255 255
-0.036427844 -0.029206926 0.077930279 255 255 255
-0.035351124 -0.02946806 0.077765115 255 255 255
-0.03455469 -0.029516343 0.077324145 255 255 255
-0.03823413 -0.028783599 0.077178873 255 255 255
-0.037487049 -0.028522909 0.077385478 255 255 255
-0.036521301 -0.028496163 0.077527091 255 255 255
-0.035541248 -0.028543215 0.077363245 255 255 255
-0.034859281 -0.028731441 0.077163756 255 255 255
-0.036511645 -0.027984753 0.077087946 255 255 255
-0.036706246 -0.031089738 0.078065068 255 255 255
-0.035948649 -0.031096652 0.078003287 255 255 255
-0.037332013 -0.030428961 0.078091487 255 255 255
-0.036424249 -0.03045967 0.078130431 255 255 255
-0.035753123 -0.030398346 0.07805609 255 255 255
-0.037250794 -0.029736653 0.078041434 255 255 255
-0.036530387 -0.029669326 0.078070477 255 255 255
-0.035823517 -0.029755816 0.078036308 255 255 255
0 0 0 1 0 0 0 1 0 0 0 1 0 0 0 0 0 120 1 0 0
